3.570742130279541016e+00 8.311903953552246094e+00 -1.659811496734619141e+00 9.638787508010864258e-01
3.494912147521972656e+00 8.509892463684082031e+00 -1.687917709350585938e+00 9.632785320281982422e-01
3.564570188522338867e+00 9.092597007751464844e+00 -1.791900753974914551e+00 9.610609412193298340e-01
3.417998075485229492e+00 9.148691177368164062e+00 -1.791900753974914551e+00 9.610609412193298340e-01
3.270556449890136719e+00 9.202431678771972656e+00 -1.791900753974914551e+00 9.610609412193298340e-01
2.973164081573486328e+00 9.302773475646972656e+00 -1.791900753974914551e+00 9.610609412193298340e-01
2.672695159912109375e+00 9.393515586853027344e+00 -1.791900753974914551e+00 9.610609412193298340e-01
2.369467735290527344e+00 9.474540710449218750e+00 -1.791900753974914551e+00 9.610609412193298340e-01
2.063793897628784180e+00 9.545810699462890625e+00 -1.791900753974914551e+00 9.610608816146850586e-01
1.910136699676513672e+00 9.577724456787109375e+00 -1.791900753974914551e+00 9.610609412193298340e-01
1.601386666297912598e+00 9.634150505065917969e+00 -1.791900753974914551e+00 9.610609412193298340e-01
1.446372032165527344e+00 9.658652305603027344e+00 -1.791900753974914551e+00 9.610608816146850586e-01
1.290976524353027344e+00 9.680634498596191406e+00 -1.791900753974914551e+00 9.610609412193298340e-01
1.135258793830871582e+00 9.700126647949218750e+00 -1.791900753974914551e+00 9.610609412193298340e-01
9.792382717132568359e-01 9.717108726501464844e+00 -1.791900753974914551e+00 9.610610008239746094e-01
6.664843559265136719e-01 9.743574142456054688e+00 -1.791900753974914551e+00 9.610609412193298340e-01
3.530468642711639404e-01 9.759961128234863281e+00 -1.791900753974914551e+00 9.610609412193298340e-01
-2.745996117591857910e-01 9.762479782104492188e+00 -1.791900753974914551e+00 9.610609412193298340e-01
-5.881640315055847168e-01 9.748613357543945312e+00 -1.791900753974914551e+00 9.610609412193298340e-01
-7.447412014007568359e-01 9.737899780273437500e+00 -1.791900753974914551e+00 9.610609412193298340e-01
-9.011181592941284180e-01 9.724677085876464844e+00 -1.791900753974914551e+00 9.610609412193298340e-01
-1.057270526885986328e+00 9.708945274353027344e+00 -1.791900753974914551e+00 9.610609412193298340e-01
-1.213144540786743164e+00 9.690702438354492188e+00 -1.791900753974914551e+00 9.610609412193298340e-01
-1.368701100349426270e+00 9.669950485229492188e+00 -1.791900753974914551e+00 9.610609412193298340e-01
-1.678730487823486328e+00 9.620966911315917969e+00 -1.791900753974914551e+00 9.610610008239746094e-01
-1.833110332489013672e+00 9.592782974243164062e+00 -1.791900753974914551e+00 9.610608816146850586e-01
-1.987016558647155762e+00 9.562079429626464844e+00 -1.791900753974914551e+00 9.610608816146850586e-01
-2.140410184860229492e+00 9.528905868530273438e+00 -1.791900753974914551e+00 9.610609412193298340e-01
-2.445502758026123047e+00 9.455214500427246094e+00 -1.791900753974914551e+00 9.610608816146850586e-01
-2.748066425323486328e+00 9.371738433837890625e+00 -1.791900753974914551e+00 9.610609412193298340e-01
-2.898310422897338867e+00 9.326376914978027344e+00 -1.791900753974914551e+00 9.610609412193298340e-01
-3.344374895095825195e+00 9.175868988037109375e+00 -1.791900753974914551e+00 9.610609412193298340e-01
-3.491391420364379883e+00 9.120937347412109375e+00 -1.791900753974914551e+00 9.610609412193298340e-01
-3.637499809265136719e+00 9.063652038574218750e+00 -1.791900753974914551e+00 9.610610008239746094e-01
-4.212172985076904297e+00 8.811308860778808594e+00 -1.791900753974914551e+00 9.610608816146850586e-01
-4.353222370147705078e+00 8.742480278015136719e+00 -1.791900753974914551e+00 9.610609412193298340e-01
-4.631904125213623047e+00 8.598066329956054688e+00 -1.791900753974914551e+00 9.610609412193298340e-01
-4.769467830657958984e+00 8.522539138793945312e+00 -1.791900753974914551e+00 9.610609412193298340e-01
-4.905795574188232422e+00 8.444794654846191406e+00 -1.791900753974914551e+00 9.610609412193298340e-01
-5.307060241699218750e+00 8.198574066162109375e+00 -1.791900753974914551e+00 9.610609412193298340e-01
-5.438112735748291016e+00 8.112226486206054688e+00 -1.791900753974914551e+00 9.610609412193298340e-01
-5.572829246520996094e+00 8.031123161315917969e+00 -1.793532967567443848e+00 9.610261321067810059e-01
-5.695973873138427734e+00 7.933310508728027344e+00 -1.791900753974914551e+00 9.610608816146850586e-01
-5.846496582031250000e+00 7.872783184051513672e+00 -1.799220085144042969e+00 9.609050154685974121e-01
-6.242482662200927734e+00 7.864804744720458984e+00 -1.842312574386596680e+00 9.599876403808593750e-01
-6.658034324645996094e+00 7.856073856353759766e+00 -1.889435410499572754e+00 9.589855074882507324e-01
-7.080810546875000000e+00 7.830234050750732422e+00 -1.936970591545104980e+00 9.579756259918212891e-01
-7.212497234344482422e+00 7.722704887390136719e+00 -1.938793182373046875e+00 9.579369425773620605e-01
-7.342682838439941406e+00 7.613114833831787109e+00 -1.940650701522827148e+00 9.578974843025207520e-01
-7.471352577209472656e+00 7.501445293426513672e+00 -1.942543387413024902e+00 9.578573107719421387e-01
-7.944951057434082031e+00 7.012372970581054688e+00 -1.944300770759582520e+00 9.578199982643127441e-01
-8.056609153747558594e+00 6.883789062500000000e+00 -1.944300770759582520e+00 9.578199982643127441e-01
-8.482140541076660156e+00 6.352079868316650391e+00 -1.944300770759582520e+00 9.578199982643127441e-01
-8.872638702392578125e+00 5.794120788574218750e+00 -1.944300770759582520e+00 9.578199982643127441e-01
-8.964596748352050781e+00 5.650800704956054688e+00 -1.944300770759582520e+00 9.578199982643127441e-01
-9.141547203063964844e+00 5.359824180603027344e+00 -1.944300770759582520e+00 9.578199982643127441e-01
-9.226498603820800781e+00 5.212226390838623047e+00 -1.944300770759582520e+00 9.578199982643127441e-01
-9.466958045959472656e+00 4.761542797088623047e+00 -1.944300770759582520e+00 9.578199982643127441e-01
-9.615070343017578125e+00 4.454873085021972656e+00 -1.944300770759582520e+00 9.578199982643127441e-01
-9.685417175292968750e+00 4.299794673919677734e+00 -1.944300770759582520e+00 9.578199982643127441e-01
-9.941606521606445312e+00 3.668788909912109375e+00 -1.944300770759582520e+00 9.578199982643127441e-01
-9.999274253845214844e+00 3.508564472198486328e+00 -1.944300770759582520e+00 9.578199982643127441e-01
-1.010685253143310547e+01 3.185449123382568359e+00 -1.944300770759582520e+00 9.578199982643127441e-01
-1.015673351287841797e+01 3.022617101669311523e+00 -1.944300770759582520e+00 9.578199982643127441e-01
-1.024862003326416016e+01 2.694697141647338867e+00 -1.944300770759582520e+00 9.578199982643127441e-01
-1.029059505462646484e+01 2.529667854309082031e+00 -1.944300770759582520e+00 9.578199982643127441e-01
-1.048632812500000000e+01 1.527255773544311523e+00 -1.944300770759582520e+00 9.578199982643127441e-01
-1.050951671600341797e+01 1.358554601669311523e+00 -1.944300770759582520e+00 9.578199982643127441e-01
-1.052998542785644531e+01 1.189501881599426270e+00 -1.944300770759582520e+00 9.578199982643127441e-01
-1.054774188995361328e+01 1.020146489143371582e+00 -1.944300770759582520e+00 9.578199982643127441e-01
-1.056277084350585938e+01 8.505273461341857910e-01 -1.944300770759582520e+00 9.578199982643127441e-01
-1.057507324218750000e+01 6.806933283805847168e-01 -1.944300770759582520e+00 9.578199982643127441e-01
-1.058464622497558594e+01 5.106542706489562988e-01 -1.944300770759582520e+00 9.578199982643127441e-01
-1.059559535980224609e+01 1.702929586172103882e-01 -1.944300770759582520e+00 9.578199982643127441e-01
-9.971762657165527344e+00 -1.602636724710464478e-01 -1.944300770759582520e+00 9.601716399192810059e-01
-9.967900276184082031e+00 -3.204687535762786865e-01 -1.944300770759582520e+00 9.601716399192810059e-01
-9.961464881896972656e+00 -4.805956780910491943e-01 -1.944300770759582520e+00 9.601716399192810059e-01
-9.952453613281250000e+00 -6.406054496765136719e-01 -1.944300770759582520e+00 9.601716399192810059e-01
-9.926731109619140625e+00 -9.600976109504699707e-01 -1.944300770759582520e+00 9.601716399192810059e-01
-9.910026550292968750e+00 -1.119462847709655762e+00 -1.944300770759582520e+00 9.601715803146362305e-01
-9.868932723999023438e+00 -1.437343716621398926e+00 -1.944300770759582520e+00 9.601716399192810059e-01
-9.844562530517578125e+00 -1.595732331275939941e+00 -1.944300770759582520e+00 9.601716399192810059e-01
-9.788198471069335938e+00 -1.911249995231628418e+00 -1.944300770759582520e+00 9.601716399192810059e-01
-9.756225585937500000e+00 -2.068300724029541016e+00 -1.944300770759582520e+00 9.601715803146362305e-01
-9.645221710205078125e+00 -2.536044836044311523e+00 -1.944300770759582520e+00 9.601715803146362305e-01
-9.603222846984863281e+00 -2.690703153610229492e+00 -1.944300770759582520e+00 9.601716399192810059e-01
-9.558744430541992188e+00 -2.844667911529541016e+00 -1.944300770759582520e+00 9.601716399192810059e-01
-9.511801719665527344e+00 -2.997900247573852539e+00 -1.944300770759582520e+00 9.601716399192810059e-01
-9.410556793212890625e+00 -3.301992177963256836e+00 -1.944300770759582520e+00 9.601716399192810059e-01
-9.299596786499023438e+00 -3.602685451507568359e+00 -1.944300770759582520e+00 9.601715803146362305e-01
-9.179022789001464844e+00 -3.899638652801513672e+00 -1.944300770759582520e+00 9.601716399192810059e-01
-8.980437278747558594e+00 -4.337460994720458984e+00 -1.944300770759582520e+00 9.601715803146362305e-01
-8.909580230712890625e+00 -4.481191158294677734e+00 -1.944300770759582520e+00 9.601716399192810059e-01
-8.683279037475585938e+00 -4.905351638793945312e+00 -1.944300770759582520e+00 9.601715803146362305e-01
-8.436799049377441406e+00 -5.318105220794677734e+00 -1.944300770759582520e+00 9.601715803146362305e-01
-8.261554718017578125e+00 -5.586445331573486328e+00 -1.944300770759582520e+00 9.601716399192810059e-01
-8.170720100402832031e+00 -5.718486309051513672e+00 -1.944300770759582520e+00 9.601716399192810059e-01
-8.077780723571777344e+00 -5.849042892456054688e+00 -1.944300770759582520e+00 9.601715803146362305e-01
-7.982748985290527344e+00 -5.978075981140136719e+00 -1.944300770759582520e+00 9.601716399192810059e-01
-7.685392856597900391e+00 -6.355820178985595703e+00 -1.944300770759582520e+00 9.601716399192810059e-01
-7.582265377044677734e+00 -6.478505611419677734e+00 -1.944300770759582520e+00 9.601716399192810059e-01
-7.370172977447509766e+00 -6.718808650970458984e+00 -1.944300770759582520e+00 9.601715803146362305e-01
-7.261259555816650391e+00 -6.836357116699218750e+00 -1.944300770759582520e+00 9.601716399192810059e-01
-6.923381328582763672e+00 -7.178359031677246094e+00 -1.944300770759582520e+00 9.601715803146362305e-01
-6.807140827178955078e+00 -7.288671493530273438e+00 -1.944300770759582520e+00 9.601715803146362305e-01
-6.569411277770996094e+00 -7.503642559051513672e+00 -1.944300770759582520e+00 9.601715803146362305e-01
-6.324894905090332031e+00 -7.710868835449218750e+00 -1.944300770759582520e+00 9.601716399192810059e-01
-6.200173377990722656e+00 -7.811513423919677734e+00 -1.944300770759582520e+00 9.601715803146362305e-01
-5.945961952209472656e+00 -8.006698608398437500e+00 -1.944300770759582520e+00 9.601716399192810059e-01
-5.816542625427246094e+00 -8.101220130920410156e+00 -1.944300770759582520e+00 9.601715803146362305e-01
-5.419392108917236328e+00 -8.372099876403808594e+00 -1.944300770759582520e+00 9.601715803146362305e-01
-5.284162521362304688e+00 -8.458105087280273438e+00 -1.944300770759582520e+00 9.601715803146362305e-01
-5.147563457489013672e+00 -8.541904449462890625e+00 -1.944300770759582520e+00 9.601716399192810059e-01
-5.009638786315917969e+00 -8.623535156250000000e+00 -1.944300770759582520e+00 9.601715803146362305e-01
-4.729946136474609375e+00 -8.780058860778808594e+00 -1.944300770759582520e+00 9.601715803146362305e-01
-4.588246822357177734e+00 -8.854941368103027344e+00 -1.944300770759582520e+00 9.601715803146362305e-01
-4.445371150970458984e+00 -8.927519798278808594e+00 -1.944300770759582520e+00 9.601715803146362305e-01
-2.652094602584838867e+00 -9.613965034484863281e+00 -1.944300770759582520e+00 9.601715803146362305e-01
-2.497265577316284180e+00 -9.655341148376464844e+00 -1.944300770759582520e+00 9.601715803146362305e-01
-2.341796875000000000e+00 -9.694218635559082031e+00 -1.944300770759582520e+00 9.601715803146362305e-01
-2.185712814331054688e+00 -9.730595588684082031e+00 -1.944300770759582520e+00 9.601715803146362305e-01
-1.871914029121398926e+00 -9.795800209045410156e+00 -1.944300770759582520e+00 9.601716399192810059e-01
-1.714262604713439941e+00 -9.824619293212890625e+00 -1.944300770759582520e+00 9.601715803146362305e-01
-1.556167006492614746e+00 -9.850888252258300781e+00 -1.944300770759582520e+00 9.601716399192810059e-01
-1.079653263092041016e+00 -9.914443016052246094e+00 -1.944300770759582520e+00 9.601715803146362305e-01
-9.201903939247131348e-01 -9.930517196655273438e+00 -1.944300770759582520e+00 9.601715803146362305e-01
-4.405712783336639404e-01 -9.963319778442382812e+00 -1.944300770759582520e+00 9.601715803146362305e-01
-1.201855465769767761e-01 -9.972324371337890625e+00 -1.944300770759582520e+00 9.601716399192810059e-01
4.007812589406967163e-02 -9.972978591918945312e+00 -1.944300770759582520e+00 9.601715803146362305e-01
2.003222554922103882e-01 -9.971054077148437500e+00 -1.944300770759582520e+00 9.601715803146362305e-01
6.805956959724426270e-01 -9.949804306030273438e+00 -1.944300770759582520e+00 9.601715803146362305e-01
8.403759598731994629e-01 -9.937578201293945312e+00 -1.944300770759582520e+00 9.601716399192810059e-01
1.635278224945068359e+00 -9.838066101074218750e+00 -1.944300770759582520e+00 9.601716399192810059e-01
1.793154239654541016e+00 -9.810517311096191406e+00 -1.944300770759582520e+00 9.601716399192810059e-01
2.263842821121215820e+00 -9.712734222412109375e+00 -1.944300770759582520e+00 9.601715207099914551e-01
2.574775218963623047e+00 -9.634961128234863281e+00 -1.944300770759582520e+00 9.601715803146362305e-01
3.188344717025756836e+00 -9.449677467346191406e+00 -1.944300770759582520e+00 9.601715803146362305e-01
3.339780092239379883e+00 -9.397216796875000000e+00 -1.944300770759582520e+00 9.601715803146362305e-01
3.490351438522338867e+00 -9.342343330383300781e+00 -1.944300770759582520e+00 9.601715803146362305e-01
3.640019416809082031e+00 -9.285038948059082031e+00 -1.944300770759582520e+00 9.601716399192810059e-01
3.936494112014770508e+00 -9.163290977478027344e+00 -1.944300770759582520e+00 9.601715803146362305e-01
4.083237171173095703e+00 -9.098856925964355469e+00 -1.944300770759582520e+00 9.601715803146362305e-01
4.228906154632568359e+00 -9.032070159912109375e+00 -1.944300770759582520e+00 9.601715803146362305e-01
4.373505592346191406e+00 -8.962948799133300781e+00 -1.944300770759582520e+00 9.601715803146362305e-01
4.659252643585205078e+00 -8.817783355712890625e+00 -1.944300770759582520e+00 9.601715803146362305e-01
5.216040134429931641e+00 -8.500292778015136719e+00 -1.944300770759582520e+00 9.601715803146362305e-01
5.351957798004150391e+00 -8.415380477905273438e+00 -1.944300770759582520e+00 9.601715803146362305e-01
5.619604587554931641e+00 -8.239052772521972656e+00 -1.944300770759582520e+00 9.601715803146362305e-01
5.751269340515136719e+00 -8.147685050964355469e+00 -1.944300770759582520e+00 9.601715803146362305e-01
6.262748718261718750e+00 -7.761445045471191406e+00 -1.944300770759582520e+00 9.601715803146362305e-01
6.386660099029541016e+00 -7.659794807434082031e+00 -1.944300770759582520e+00 9.601715803146362305e-01
6.508915901184082031e+00 -7.556191444396972656e+00 -1.944300770759582520e+00 9.601715803146362305e-01
6.748363971710205078e+00 -7.343124866485595703e+00 -1.944300770759582520e+00 9.601715803146362305e-01
6.865483283996582031e+00 -7.233749866485595703e+00 -1.944300770759582520e+00 9.601715803146362305e-01
7.094384670257568359e+00 -7.009384632110595703e+00 -1.944300770759582520e+00 9.601716399192810059e-01
7.634081840515136719e+00 -6.417382717132568359e+00 -1.944300770759582520e+00 9.601715803146362305e-01
7.736220359802246094e+00 -6.293886661529541016e+00 -1.944300770759582520e+00 9.601715207099914551e-01
8.030527114868164062e+00 -5.913759708404541016e+00 -1.944300770759582520e+00 9.601715803146362305e-01
8.124526023864746094e+00 -5.783945083618164062e+00 -1.944300770759582520e+00 9.601715803146362305e-01
8.216410636901855469e+00 -5.652656078338623047e+00 -1.944300770759582520e+00 9.601715803146362305e-01
8.306176185607910156e+00 -5.519902229309082031e+00 -1.944300770759582520e+00 9.601715803146362305e-01
8.393803596496582031e+00 -5.385722637176513672e+00 -1.944300770759582520e+00 9.601715803146362305e-01
8.479271888732910156e+00 -5.250146389007568359e+00 -1.944300770759582520e+00 9.601715803146362305e-01
8.643589019775390625e+00 -4.974951267242431641e+00 -1.944300770759582520e+00 9.601716399192810059e-01
8.722421646118164062e+00 -4.835419654846191406e+00 -1.944300770759582520e+00 9.601715803146362305e-01
9.082377433776855469e+00 -4.119765758514404297e+00 -1.944300770759582520e+00 9.601715803146362305e-01
9.147397041320800781e+00 -3.973281145095825195e+00 -1.944300770759582520e+00 9.601715803146362305e-01
9.270356178283691406e+00 -3.677284955978393555e+00 -1.944300770759582520e+00 9.601715803146362305e-01
9.328242301940917969e+00 -3.527851581573486328e+00 -1.944300770759582520e+00 9.601715803146362305e-01
9.383729934692382812e+00 -3.377499818801879883e+00 -1.944300770759582520e+00 9.601715803146362305e-01
9.703549385070800781e+00 -2.302851438522338867e+00 -1.944300770759582520e+00 9.601715803146362305e-01
9.772539138793945312e+00 -1.989833950996398926e+00 -1.944300770759582520e+00 9.601715803146362305e-01
9.803251266479492188e+00 -1.832548737525939941e+00 -1.944300770759582520e+00 9.601715803146362305e-01
9.831425666809082031e+00 -1.674794912338256836e+00 -1.944300770759582520e+00 9.601715803146362305e-01
9.880161285400390625e+00 -1.358007788658142090e+00 -1.944300770759582520e+00 9.601716399192810059e-01
9.965009689331054688e+00 -4.005371034145355225e-01 -1.944300770759582520e+00 9.601715803146362305e-01
9.972734451293945312e+00 8.012694865465164185e-02 -1.944300770759582520e+00 9.601715803146362305e-01
9.946991920471191406e+00 7.205468416213989258e-01 -1.944300770759582520e+00 9.601715803146362305e-01
9.934125900268554688e+00 8.802929520606994629e-01 -1.944300770759582520e+00 9.601716399192810059e-01
9.857069969177246094e+00 1.516582012176513672e+00 -1.944300770759582520e+00 9.601715803146362305e-01
9.831435203552246094e+00 1.674785137176513672e+00 -1.944300770759582520e+00 9.601715803146362305e-01
9.803246498107910156e+00 1.832558512687683105e+00 -1.944300770759582520e+00 9.601715803146362305e-01
9.703549385070800781e+00 2.302841663360595703e+00 -1.944300770759582520e+00 9.601715803146362305e-01
9.624535560607910156e+00 2.613456964492797852e+00 -1.944300770759582520e+00 9.601715803146362305e-01
9.581294059753417969e+00 2.767773389816284180e+00 -1.944300770759582520e+00 9.601716399192810059e-01
9.436791419982910156e+00 3.226269483566284180e+00 -1.944300770759582520e+00 9.601715803146362305e-01
9.383729934692382812e+00 3.377499818801879883e+00 -1.944300770759582520e+00 9.601715803146362305e-01
9.328247070312500000e+00 3.527851581573486328e+00 -1.944300770759582520e+00 9.601715803146362305e-01
9.210067749023437500e+00 3.825771331787109375e+00 -1.944300770759582520e+00 9.601715803146362305e-01
9.082372665405273438e+00 4.119736194610595703e+00 -1.944300770759582520e+00 9.601716399192810059e-01
9.014999389648437500e+00 4.265146255493164062e+00 -1.944300770759582520e+00 9.601716399192810059e-01
8.945302963256835938e+00 4.409462928771972656e+00 -1.944300770759582520e+00 9.601715803146362305e-01
8.798994064331054688e+00 4.694638729095458984e+00 -1.944300770759582520e+00 9.601715803146362305e-01
8.722412109375000000e+00 4.835419654846191406e+00 -1.944300770759582520e+00 9.601716399192810059e-01
8.562539100646972656e+00 5.113212585449218750e+00 -1.944300770759582520e+00 9.601715803146362305e-01
8.306181907653808594e+00 5.519892692565917969e+00 -1.944300770759582520e+00 9.601715803146362305e-01
8.124516487121582031e+00 5.783955097198486328e+00 -1.944300770759582520e+00 9.601715803146362305e-01
8.030527114868164062e+00 5.913749694824218750e+00 -1.944300770759582520e+00 9.601715803146362305e-01
7.836357116699218750e+00 6.168749809265136719e+00 -1.944300770759582520e+00 9.601715803146362305e-01
7.736215591430664062e+00 6.293876647949218750e+00 -1.944300770759582520e+00 9.601715803146362305e-01
7.634086608886718750e+00 6.417372703552246094e+00 -1.944300770759582520e+00 9.601715803146362305e-01
7.529980182647705078e+00 6.539208889007568359e+00 -1.944300770759582520e+00 9.601715803146362305e-01
7.423925399780273438e+00 6.659374713897705078e+00 -1.944300770759582520e+00 9.601715803146362305e-01
7.206103324890136719e+00 6.894482135772705078e+00 -1.944300770759582520e+00 9.601715803146362305e-01
6.865492820739746094e+00 7.233730316162109375e+00 -1.944300770759582520e+00 9.601715803146362305e-01
6.626640319824218750e+00 7.447392463684082031e+00 -1.943459391593933105e+00 9.601884484291076660e-01
6.500488281250000000e+00 7.546386718750000000e+00 -1.941781401634216309e+00 9.602221846580505371e-01
6.372978210449218750e+00 7.643398284912109375e+00 -1.940137267112731934e+00 9.602551460266113281e-01
6.114023208618164062e+00 7.831347465515136719e+00 -1.936951518058776855e+00 9.603191614151000977e-01
5.735844612121582031e+00 7.854814052581787109e+00 -1.896167993545532227e+00 9.611382484436035156e-01
5.547270298004150391e+00 7.858681678771972656e+00 -1.875336527824401855e+00 9.615567922592163086e-01
4.830815315246582031e+00 7.872509479522705078e+00 -1.800707101821899414e+00 9.630579948425292969e-01
4.680678844451904297e+00 7.910243988037109375e+00 -1.791900753974914551e+00 9.632353186607360840e-01
4.552963733673095703e+00 7.984433650970458984e+00 -1.791900753974914551e+00 9.632353186607360840e-01
4.424081802368164062e+00 8.056562423706054688e+00 -1.791900753974914551e+00 9.632353186607360840e-01
4.294047832489013672e+00 8.126610755920410156e+00 -1.791900753974914551e+00 9.632353186607360840e-01
3.897441387176513672e+00 8.324101448059082031e+00 -1.791900753974914551e+00 9.632353186607360840e-01
3.568867206573486328e+00 8.307538986206054688e+00 -1.762722253799438477e+00 9.638229608535766602e-01
3.490463733673095703e+00 8.499062538146972656e+00 -1.791229248046875000e+00 9.632488489151000977e-01
3.354697227478027344e+00 8.557255744934082031e+00 -1.791900753974914551e+00 9.632353782653808594e-01
2.938432455062866211e+00 8.708984375000000000e+00 -1.791900753974914551e+00 9.632353186607360840e-01
2.372954130172729492e+00 8.879735946655273438e+00 -1.791900753974914551e+00 9.632353782653808594e-01
1.942285060882568359e+00 8.983759880065917969e+00 -1.791900753974914551e+00 9.632353782653808594e-01
1.361215829849243164e+00 9.090000152587890625e+00 -1.791900753974914551e+00 9.632352590560913086e-01
1.214970707893371582e+00 9.110673904418945312e+00 -1.791900753974914551e+00 9.632353782653808594e-01
9.215819835662841797e-01 9.145019531250000000e+00 -1.791900753974914551e+00 9.632353186607360840e-01
7.745165824890136719e-01 9.158642768859863281e+00 -1.791900753974914551e+00 9.632353782653808594e-01
4.798193275928497314e-01 9.178817749023437500e+00 -1.791900753974914551e+00 9.632353186607360840e-01
3.322558403015136719e-01 9.185321807861328125e+00 -1.791900753974914551e+00 9.632353782653808594e-01
1.846191436052322388e-01 9.189472198486328125e+00 -1.791900753974914551e+00 9.632353782653808594e-01
3.692870959639549255e-02 9.191259384155273438e+00 -1.791900753974914551e+00 9.632353782653808594e-01
-4.060449004173278809e-01 9.182363510131835938e+00 -1.791900753974914551e+00 9.632353186607360840e-01
-5.535351634025573730e-01 9.174648284912109375e+00 -1.791900753974914551e+00 9.632353782653808594e-01
-7.008935213088989258e-01 9.164580345153808594e+00 -1.791900753974914551e+00 9.632353186607360840e-01
-8.480615019798278809e-01 9.152118682861328125e+00 -1.791900753974914551e+00 9.632353782653808594e-01
-9.950194954872131348e-01 9.137313842773437500e+00 -1.791900753974914551e+00 9.632353782653808594e-01
-1.579897403717041016e+00 9.054531097412109375e+00 -1.791900753974914551e+00 9.632353782653808594e-01
-1.725180625915527344e+00 9.027977943420410156e+00 -1.791900753974914551e+00 9.632353186607360840e-01
-2.014389514923095703e+00 8.967880249023437500e+00 -1.791900753974914551e+00 9.632353186607360840e-01
-2.158237218856811523e+00 8.934355735778808594e+00 -1.791900753974914551e+00 9.632353186607360840e-01
-2.727665901184082031e+00 8.777275085449218750e+00 -1.791900753974914551e+00 9.632353186607360840e-01
-3.147475481033325195e+00 8.635624885559082031e+00 -1.791900753974914551e+00 9.632353782653808594e-01
-3.285830020904541016e+00 8.583935737609863281e+00 -1.791900753974914551e+00 9.632353186607360840e-01
-4.096923828125000000e+00 8.227763175964355469e+00 -1.791900753974914551e+00 9.632353186607360840e-01
-4.228603363037109375e+00 8.160859107971191406e+00 -1.791900753974914551e+00 9.632353186607360840e-01
-4.917304515838623047e+00 7.870888710021972656e+00 -1.809319615364074707e+00 9.628847241401672363e-01
-5.092812538146972656e+00 7.867607116699218750e+00 -1.827139377593994141e+00 9.625260829925537109e-01
-5.271811485290527344e+00 7.864140510559082031e+00 -1.845775604248046875e+00 9.621512293815612793e-01
-6.179233074188232422e+00 7.785126686096191406e+00 -1.937735080718994141e+00 9.603034257888793945e-01
-6.308720588684082031e+00 7.691162109375000000e+00 -1.939327955245971680e+00 9.602713584899902344e-01
-6.436882019042968750e+00 7.595156192779541016e+00 -1.940955042839050293e+00 9.602387547492980957e-01
-6.689140319824218750e+00 7.397109031677246094e+00 -1.944300770759582520e+00 9.601715803146362305e-01
-6.923376083374023438e+00 7.178349494934082031e+00 -1.944300770759582520e+00 9.601715803146362305e-01
-7.037831783294677734e+00 7.066162109375000000e+00 -1.944300770759582520e+00 9.601716399192810059e-01
-7.150468826293945312e+00 6.952167987823486328e+00 -1.944300770759582520e+00 9.601715803146362305e-01
-7.261257171630859375e+00 6.836367130279541016e+00 -1.944300770759582520e+00 9.601716399192810059e-01
-7.477184772491455078e+00 6.599501609802246094e+00 -1.944300770759582520e+00 9.601716399192810059e-01
-7.685392856597900391e+00 6.355820178985595703e+00 -1.944300770759582520e+00 9.601716399192810059e-01
-7.786530494689941406e+00 6.231513500213623047e+00 -1.944300770759582520e+00 9.601715803146362305e-01
-7.982753753662109375e+00 5.978075981140136719e+00 -1.944300770759582520e+00 9.601716399192810059e-01
-8.077780723571777344e+00 5.849032878875732422e+00 -1.944300770759582520e+00 9.601716399192810059e-01
-8.170717239379882812e+00 5.718495845794677734e+00 -1.944300770759582520e+00 9.601715803146362305e-01
-8.261557579040527344e+00 5.586454868316650391e+00 -1.944300770759582520e+00 9.601715803146362305e-01
-8.350255966186523438e+00 5.452988147735595703e+00 -1.944300770759582520e+00 9.601715803146362305e-01
-8.436799049377441406e+00 5.318095684051513672e+00 -1.944300770759582520e+00 9.601716399192810059e-01
-8.521166801452636719e+00 5.181855201721191406e+00 -1.944300770759582520e+00 9.601715803146362305e-01
-8.603329658508300781e+00 5.044257640838623047e+00 -1.944300770759582520e+00 9.601715803146362305e-01
-8.683276176452636719e+00 4.905351638793945312e+00 -1.944300770759582520e+00 9.601716399192810059e-01
-8.836421012878417969e+00 4.623788833618164062e+00 -1.944300770759582520e+00 9.601716399192810059e-01
-8.909580230712890625e+00 4.481210708618164062e+00 -1.944300770759582520e+00 9.601715803146362305e-01
-9.048976898193359375e+00 4.192597389221191406e+00 -1.944300770759582520e+00 9.601715803146362305e-01
-9.179028511047363281e+00 3.899648427963256836e+00 -1.944300770759582520e+00 9.601715803146362305e-01
-9.410558700561523438e+00 3.302011728286743164e+00 -1.944300770759582520e+00 9.601715803146362305e-01
-9.462402343750000000e+00 3.150351524353027344e+00 -1.944300770759582520e+00 9.601716399192810059e-01
-9.511803627014160156e+00 2.997900247573852539e+00 -1.944300770759582520e+00 9.601715803146362305e-01
-9.558747291564941406e+00 2.844667911529541016e+00 -1.944300770759582520e+00 9.601716399192810059e-01
-9.603224754333496094e+00 2.690693378448486328e+00 -1.944300770759582520e+00 9.601716399192810059e-01
-9.756227493286132812e+00 2.068290948867797852e+00 -1.944300770759582520e+00 9.601715803146362305e-01
-9.817653656005859375e+00 1.753720641136169434e+00 -1.944300770759582520e+00 9.601715803146362305e-01
-9.868935585021972656e+00 1.437343716621398926e+00 -1.944300770759582520e+00 9.601715803146362305e-01
-9.940874099731445312e+00 8.004687428474426270e-01 -1.944300770759582520e+00 9.601716399192810059e-01
-9.952450752258300781e+00 6.406250000000000000e-01 -1.944300770759582520e+00 9.601716399192810059e-01
-9.971762657165527344e+00 1.602636724710464478e-01 -1.944300770759582520e+00 9.601716399192810059e-01
-9.416254997253417969e+00 0.000000000000000000e+00 -1.944300770759582520e+00 9.622706174850463867e-01
-9.415039062500000000e+00 -1.513085961341857910e-01 -1.944300770759582520e+00 9.622706174850463867e-01
-9.411394119262695312e+00 -3.025878965854644775e-01 -1.944300770759582520e+00 9.622706174850463867e-01
-9.385873794555664062e+00 -7.557616829872131348e-01 -1.944300770759582520e+00 9.622706174850463867e-01
-9.356742858886718750e+00 -1.056972622871398926e+00 -1.944300770759582520e+00 9.622706174850463867e-01
-9.338552474975585938e+00 -1.207197189331054688e+00 -1.944300770759582520e+00 9.622706174850463867e-01
-9.294936180114746094e+00 -1.506650328636169434e+00 -1.944300770759582520e+00 9.622706174850463867e-01
-9.241721153259277344e+00 -1.804540991783142090e+00 -1.944300770759582520e+00 9.622706174850463867e-01
-9.211530685424804688e+00 -1.952822208404541016e+00 -1.944300770759582520e+00 9.622706174850463867e-01
-9.178964614868164062e+00 -2.100585937500000000e+00 -1.944300770759582520e+00 9.622706174850463867e-01
-9.067072868347167969e+00 -2.540468692779541016e+00 -1.944300770759582520e+00 9.622706174850463867e-01
-8.980756759643554688e+00 -2.830527305603027344e+00 -1.944300770759582520e+00 9.622706174850463867e-01
-8.606276512145996094e+00 -3.820722579956054688e+00 -1.944300770759582520e+00 9.622706174850463867e-01
-8.543771743774414062e+00 -3.958534955978393555e+00 -1.944300770759582520e+00 9.622705578804016113e-01
-8.479055404663085938e+00 -4.095293045043945312e+00 -1.944300770759582520e+00 9.622706174850463867e-01
-8.412153244018554688e+00 -4.231015682220458984e+00 -1.944300770759582520e+00 9.622706174850463867e-01
-8.271855354309082031e+00 -4.499140739440917969e+00 -1.944300770759582520e+00 9.622706174850463867e-01
-8.198488235473632812e+00 -4.631494045257568359e+00 -1.944300770759582520e+00 9.622706174850463867e-01
-8.045429229736328125e+00 -4.892539024353027344e+00 -1.944300770759582520e+00 9.622706174850463867e-01
-7.965771198272705078e+00 -5.021191120147705078e+00 -1.944300770759582520e+00 9.622706174850463867e-01
-7.800309658050537109e+00 -5.274560451507568359e+00 -1.944300770759582520e+00 9.622706174850463867e-01
-7.445397853851318359e+00 -5.764707088470458984e+00 -1.944300770759582520e+00 9.622706174850463867e-01
-7.158945083618164062e+00 -6.116806507110595703e+00 -1.944300770759582520e+00 9.622706174850463867e-01
-7.059733867645263672e+00 -6.231054782867431641e+00 -1.944300770759582520e+00 9.622706174850463867e-01
-6.958696365356445312e+00 -6.343700885772705078e+00 -1.944300770759582520e+00 9.622705578804016113e-01
-6.751262187957763672e+00 -6.564033031463623047e+00 -1.944300770759582520e+00 9.622705578804016113e-01
-6.644906997680664062e+00 -6.671659946441650391e+00 -1.944300770759582520e+00 9.622706174850463867e-01
-6.427094459533691406e+00 -6.881738185882568359e+00 -1.944300770759582520e+00 9.622706174850463867e-01
-6.087990760803222656e+00 -7.183476448059082031e+00 -1.944300770759582520e+00 9.622705578804016113e-01
-5.971779823303222656e+00 -7.280370712280273438e+00 -1.944300770759582520e+00 9.622706174850463867e-01
-5.613994121551513672e+00 -7.559687137603759766e+00 -1.944300770759582520e+00 9.622706174850463867e-01
-5.491804122924804688e+00 -7.648925781250000000e+00 -1.944300770759582520e+00 9.622705578804016113e-01
-5.116821289062500000e+00 -7.904667854309082031e+00 -1.944300770759582520e+00 9.622706770896911621e-01
-4.989140510559082031e+00 -7.985878944396972656e+00 -1.944300770759582520e+00 9.622706174850463867e-01
-4.729946136474609375e+00 -8.142080307006835938e+00 -1.944300770759582520e+00 9.622706174850463867e-01
-4.598495960235595703e+00 -8.217031478881835938e+00 -1.944300770759582520e+00 9.622706174850463867e-01
-4.332084655761718750e+00 -8.360566139221191406e+00 -1.944300770759582520e+00 9.622705578804016113e-01
-4.061191082000732422e+00 -8.495449066162109375e+00 -1.944300770759582520e+00 9.622706174850463867e-01
-3.924150228500366211e+00 -8.559599876403808594e+00 -1.944300770759582520e+00 9.622706174850463867e-01
-3.647075176239013672e+00 -8.681288719177246094e+00 -1.944300770759582520e+00 9.622706174850463867e-01
-3.366235256195068359e+00 -8.793993949890136719e+00 -1.944300770759582520e+00 9.622706174850463867e-01
-3.224497079849243164e+00 -8.846953392028808594e+00 -1.944300770759582520e+00 9.622705578804016113e-01
-3.081918954849243164e+00 -8.897617340087890625e+00 -1.944300770759582520e+00 9.622706174850463867e-01
-2.938544750213623047e+00 -8.946005821228027344e+00 -1.944300770759582520e+00 9.622705578804016113e-01
-2.794418811798095703e+00 -8.992060661315917969e+00 -1.944300770759582520e+00 9.622706174850463867e-01
-2.504028320312500000e+00 -9.077206611633300781e+00 -1.944300770759582520e+00 9.622706174850463867e-01
-2.211049795150756836e+00 -9.152977943420410156e+00 -1.944300770759582520e+00 9.622706174850463867e-01
-2.063686370849609375e+00 -9.187334060668945312e+00 -1.944300770759582520e+00 9.622706174850463867e-01
-1.618554592132568359e+00 -9.276103019714355469e+00 -1.944300770759582520e+00 9.622706174850463867e-01
-1.469282150268554688e+00 -9.300908088684082031e+00 -1.944300770759582520e+00 9.622706174850463867e-01
-1.319643497467041016e+00 -9.323320388793945312e+00 -1.944300770759582520e+00 9.622706174850463867e-01
-1.169653296470642090e+00 -9.343329429626464844e+00 -1.944300770759582520e+00 9.622706174850463867e-01
-8.688183426856994629e-01 -9.376093864440917969e+00 -1.944300770759582520e+00 9.622705578804016113e-01
-7.180370688438415527e-01 -9.388837814331054688e+00 -1.944300770759582520e+00 9.622706174850463867e-01
-5.670751929283142090e-01 -9.399160385131835938e+00 -1.944300770759582520e+00 9.622706174850463867e-01
-4.159716665744781494e-01 -9.407070159912109375e+00 -1.944300770759582520e+00 9.622705578804016113e-01
-2.647558450698852539e-01 -9.412528991699218750e+00 -1.944300770759582520e+00 9.622706174850463867e-01
-1.134765595197677612e-01 -9.415575981140136719e+00 -1.944300770759582520e+00 9.622706174850463867e-01
3.783202916383743286e-02 -9.416191101074218750e+00 -1.944300770759582520e+00 9.622705578804016113e-01
1.891357451677322388e-01 -9.414355278015136719e+00 -1.944300770759582520e+00 9.622706174850463867e-01
3.403906226158142090e-01 -9.410107612609863281e+00 -1.944300770759582520e+00 9.622705578804016113e-01
4.915575981140136719e-01 -9.403417587280273438e+00 -1.944300770759582520e+00 9.622706174850463867e-01
1.394516587257385254e+00 -9.312421798706054688e+00 -1.944300770759582520e+00 9.622706174850463867e-01
1.543979406356811523e+00 -9.288818359375000000e+00 -1.944300770759582520e+00 9.622705578804016113e-01
1.841665029525756836e+00 -9.234394073486328125e+00 -1.944300770759582520e+00 9.622706174850463867e-01
1.989809513092041016e+00 -9.203613281250000000e+00 -1.944300770759582520e+00 9.622706174850463867e-01
2.137451171875000000e+00 -9.170439720153808594e+00 -1.944300770759582520e+00 9.622706174850463867e-01
2.576889514923095703e+00 -9.056806564331054688e+00 -1.944300770759582520e+00 9.622705578804016113e-01
2.722089767456054688e+00 -9.014227867126464844e+00 -1.944300770759582520e+00 9.622705578804016113e-01
3.295478343963623047e+00 -8.820761680603027344e+00 -1.944300770759582520e+00 9.622705578804016113e-01
3.436791896820068359e+00 -8.766650199890136719e+00 -1.944300770759582520e+00 9.622706174850463867e-01
3.716772317886352539e+00 -8.651699066162109375e+00 -1.944300770759582520e+00 9.622704982757568359e-01
4.129331111907958984e+00 -8.462548255920410156e+00 -1.944300770759582520e+00 9.622705578804016113e-01
4.264780044555664062e+00 -8.395097732543945312e+00 -1.944300770759582520e+00 9.622705578804016113e-01
4.399130821228027344e+00 -8.325478553771972656e+00 -1.944300770759582520e+00 9.622706174850463867e-01
4.664389610290527344e+00 -8.179823875427246094e+00 -1.944300770759582520e+00 9.622705578804016113e-01
4.924824237823486328e+00 -8.025702476501464844e+00 -1.944300770759582520e+00 9.622706174850463867e-01
5.053159236907958984e+00 -7.945537090301513672e+00 -1.944300770759582520e+00 9.622705578804016113e-01
5.305859088897705078e+00 -7.779081821441650391e+00 -1.944300770759582520e+00 9.622704982757568359e-01
5.553090572357177734e+00 -7.604550838470458984e+00 -1.944300770759582520e+00 9.622705578804016113e-01
6.030087947845458984e+00 -7.232158184051513672e+00 -1.944300770759582520e+00 9.622705578804016113e-01
6.482187271118164062e+00 -6.829882621765136719e+00 -1.944300770759582520e+00 9.622705578804016113e-01
6.591098308563232422e+00 -6.724833965301513672e+00 -1.944300770759582520e+00 9.622705578804016113e-01
6.698305606842041016e+00 -6.618046760559082031e+00 -1.944300770759582520e+00 9.622706174850463867e-01
6.907514572143554688e+00 -6.399394512176513672e+00 -1.944300770759582520e+00 9.622705578804016113e-01
7.207870960235595703e+00 -6.059101581573486328e+00 -1.944300770759582520e+00 9.622705578804016113e-01
7.398852348327636719e+00 -5.824355125427246094e+00 -1.944300770759582520e+00 9.622705578804016113e-01
7.491484165191650391e+00 -5.704706668853759766e+00 -1.944300770759582520e+00 9.622705578804016113e-01
7.582187175750732422e+00 -5.583583831787109375e+00 -1.944300770759582520e+00 9.622705578804016113e-01
7.757690429687500000e+00 -5.337069988250732422e+00 -1.944300770759582520e+00 9.622705578804016113e-01
8.005868911743164062e+00 -4.957021236419677734e+00 -1.944300770759582520e+00 9.622705578804016113e-01
8.084486961364746094e+00 -4.827734470367431641e+00 -1.944300770759582520e+00 9.622706174850463867e-01
8.161020278930664062e+00 -4.697216510772705078e+00 -1.944300770759582520e+00 9.622705578804016113e-01
8.307744026184082031e+00 -4.432538986206054688e+00 -1.944300770759582520e+00 9.622705578804016113e-01
8.377895355224609375e+00 -4.298466682434082031e+00 -1.944300770759582520e+00 9.622706174850463867e-01
8.445888519287109375e+00 -4.163290977478027344e+00 -1.944300770759582520e+00 9.622705578804016113e-01
8.511689186096191406e+00 -4.027040958404541016e+00 -1.944300770759582520e+00 9.622706174850463867e-01
8.636698722839355469e+00 -3.751435518264770508e+00 -1.944300770759582520e+00 9.622706174850463867e-01
8.807451248168945312e+00 -3.330888509750366211e+00 -1.944300770759582520e+00 9.622705578804016113e-01
8.859838485717773438e+00 -3.188935518264770508e+00 -1.944300770759582520e+00 9.622705578804016113e-01
9.046371459960937500e+00 -2.613251924514770508e+00 -1.944300770759582520e+00 9.622706174850463867e-01
9.087197303771972656e+00 -2.467548847198486328e+00 -1.944300770759582520e+00 9.622706174850463867e-01
9.195556640625000000e+00 -2.026767492294311523e+00 -1.944300770759582520e+00 9.622705578804016113e-01
9.255922317504882812e+00 -1.730234384536743164e+00 -1.944300770759582520e+00 9.622706174850463867e-01
9.282533645629882812e+00 -1.581289052963256836e+00 -1.944300770759582520e+00 9.622706174850463867e-01
9.306747436523437500e+00 -1.431933522224426270e+00 -1.944300770759582520e+00 9.622705578804016113e-01
9.328558921813964844e+00 -1.282187461853027344e+00 -1.944300770759582520e+00 9.622705578804016113e-01
9.347958564758300781e+00 -1.132119059562683105e+00 -1.944300770759582520e+00 9.622705578804016113e-01
9.391654968261718750e+00 -6.803222298622131348e-01 -1.944300770759582520e+00 9.622705578804016113e-01
9.401371955871582031e+00 -5.293261408805847168e-01 -1.944300770759582520e+00 9.622705578804016113e-01
9.408661842346191406e+00 -3.781933486461639404e-01 -1.944300770759582520e+00 9.622706174850463867e-01
9.415956497192382812e+00 -7.566405832767486572e-02 -1.944300770759582520e+00 9.622706174850463867e-01
9.379507064819335938e+00 8.311523199081420898e-01 -1.944300770759582520e+00 9.622706174850463867e-01
9.364941596984863281e+00 9.817578196525573730e-01 -1.944300770759582520e+00 9.622705578804016113e-01
9.328558921813964844e+00 1.282187461853027344e+00 -1.944300770759582520e+00 9.622705578804016113e-01
9.306747436523437500e+00 1.431913971900939941e+00 -1.944300770759582520e+00 9.622706174850463867e-01
9.255932807922363281e+00 1.730244159698486328e+00 -1.944300770759582520e+00 9.622705578804016113e-01
9.195551872253417969e+00 2.026757717132568359e+00 -1.944300770759582520e+00 9.622706174850463867e-01
9.161796569824218750e+00 2.174257755279541016e+00 -1.944300770759582520e+00 9.622706174850463867e-01
9.125683784484863281e+00 2.321210861206054688e+00 -1.944300770759582520e+00 9.622705578804016113e-01
9.087202072143554688e+00 2.467548847198486328e+00 -1.944300770759582520e+00 9.622705578804016113e-01
9.003212928771972656e+00 2.758271455764770508e+00 -1.944300770759582520e+00 9.622706174850463867e-01
8.807451248168945312e+00 3.330878734588623047e+00 -1.944300770759582520e+00 9.622706174850463867e-01
8.752792358398437500e+00 3.471982240676879883e+00 -1.944300770759582520e+00 9.622705578804016113e-01
8.575312614440917969e+00 3.889745950698852539e+00 -1.944300770759582520e+00 9.622705578804016113e-01
8.377900123596191406e+00 4.298466682434082031e+00 -1.944300770759582520e+00 9.622705578804016113e-01
8.307744026184082031e+00 4.432528972625732422e+00 -1.944300770759582520e+00 9.622706174850463867e-01
8.235444068908691406e+00 4.565439224243164062e+00 -1.944300770759582520e+00 9.622706174850463867e-01
8.084486961364746094e+00 4.827626705169677734e+00 -1.944300770759582520e+00 9.622707962989807129e-01
7.842446327209472656e+00 5.211718559265136719e+00 -1.944300770759582520e+00 9.622705578804016113e-01
7.398847579956054688e+00 5.824326038360595703e+00 -1.944300770759582520e+00 9.622706174850463867e-01
7.304306507110595703e+00 5.942470550537109375e+00 -1.944300770759582520e+00 9.622706174850463867e-01
7.207870960235595703e+00 6.059082031250000000e+00 -1.944300770759582520e+00 9.622706174850463867e-01
7.109575271606445312e+00 6.174120903015136719e+00 -1.944300770759582520e+00 9.622706174850463867e-01
6.803783893585205078e+00 6.509550571441650391e+00 -1.944300770759582520e+00 9.622706174850463867e-01
6.698310375213623047e+00 6.618056297302246094e+00 -1.944300770759582520e+00 9.622705578804016113e-01
6.591098308563232422e+00 6.724833965301513672e+00 -1.944300770759582520e+00 9.622705578804016113e-01
6.145517349243164062e+00 7.134316444396972656e+00 -1.944300770759582520e+00 9.622706174850463867e-01
6.030092716217041016e+00 7.232158184051513672e+00 -1.944300770759582520e+00 9.622705578804016113e-01
5.913095474243164062e+00 7.328105449676513672e+00 -1.944300770759582520e+00 9.622706174850463867e-01
5.669155120849609375e+00 7.507177352905273438e+00 -1.942446231842041016e+00 9.623058438301086426e-01
5.417089939117431641e+00 7.674257755279541016e+00 -1.939614176750183105e+00 9.623597860336303711e-01
5.289345741271972656e+00 7.754853248596191406e+00 -1.938248276710510254e+00 9.623857736587524414e-01
5.160502910614013672e+00 7.833446979522705078e+00 -1.936915993690490723e+00 9.624111652374267578e-01
4.482021331787109375e+00 7.859980106353759766e+00 -1.868279695510864258e+00 9.637187123298645020e-01
4.317773342132568359e+00 7.862948894500732422e+00 -1.852252483367919922e+00 9.640243053436279297e-01
3.997270345687866211e+00 7.868495941162109375e+00 -1.822342038154602051e+00 9.645947813987731934e-01
3.840727567672729492e+00 7.871083736419677734e+00 -1.808410763740539551e+00 9.648606181144714355e-01
3.687846660614013672e+00 7.876454830169677734e+00 -1.795795917510986328e+00 9.651014208793640137e-01
3.425385713577270508e+00 7.973554611206054688e+00 -1.791900753974914551e+00 9.651758074760437012e-01
3.296830892562866211e+00 8.027567863464355469e+00 -1.791900753974914551e+00 9.651758074760437012e-01
3.037167787551879883e+00 8.129364967346191406e+00 -1.791900753974914551e+00 9.651758074760437012e-01
2.906152248382568359e+00 8.177128791809082031e+00 -1.791900753974914551e+00 9.651757478713989258e-01
2.774374961853027344e+00 8.222753524780273438e+00 -1.791900753974914551e+00 9.651758074760437012e-01
2.374907255172729492e+00 8.346894264221191406e+00 -1.791900753974914551e+00 9.651758074760437012e-01
1.969912052154541016e+00 8.451640129089355469e+00 -1.791900753974914551e+00 9.651758074760437012e-01
1.833847641944885254e+00 8.482207298278808594e+00 -1.791900753974914551e+00 9.651758074760437012e-01
1.697309494018554688e+00 8.510576248168945312e+00 -1.791900753974914551e+00 9.651758074760437012e-01
1.560336828231811523e+00 8.536767005920410156e+00 -1.791900753974914551e+00 9.651757478713989258e-01
1.147133708000183105e+00 8.602041244506835938e+00 -1.791900753974914551e+00 9.651757478713989258e-01
1.008764624595642090e+00 8.619355201721191406e+00 -1.791900753974914551e+00 9.651758074760437012e-01
8.701317906379699707e-01 8.634433746337890625e+00 -1.791900753974914551e+00 9.651758670806884766e-01
7.312744259834289551e-01 8.647314071655273438e+00 -1.791900753974914551e+00 9.651758074760437012e-01
5.922265648841857910e-01 8.657958984375000000e+00 -1.791900753974914551e+00 9.651758074760437012e-01
1.743164062500000000e-01 8.676435470581054688e+00 -1.791900753974914551e+00 9.651758074760437012e-01
3.486328199505805969e-02 8.678095817565917969e+00 -1.791900753974914551e+00 9.651758670806884766e-01
-1.045849621295928955e-01 8.677548408508300781e+00 -1.791900753974914551e+00 9.651758074760437012e-01
-2.440039068460464478e-01 8.674756050109863281e+00 -1.791900753974914551e+00 9.651758074760437012e-01
-3.833788931369781494e-01 8.669696807861328125e+00 -1.791900873184204102e+00 9.651758670806884766e-01
-6.617626547813415527e-01 8.652919769287109375e+00 -1.791900753974914551e+00 9.651758074760437012e-01
-9.394677281379699707e-01 8.627177238464355469e+00 -1.791900753974914551e+00 9.651758074760437012e-01
-1.216206073760986328e+00 8.592529296875000000e+00 -1.791900753974914551e+00 9.651758670806884766e-01
-1.491684556007385254e+00 8.549013137817382812e+00 -1.791900753974914551e+00 9.651758670806884766e-01
-1.901938438415527344e+00 8.467197418212890625e+00 -1.791900753974914551e+00 9.651758074760437012e-01
-2.037739276885986328e+00 8.435537338256835938e+00 -1.791900753974914551e+00 9.651758670806884766e-01
-2.441879749298095703e+00 8.327548980712890625e+00 -1.791900753974914551e+00 9.651758074760437012e-01
-2.708207845687866211e+00 8.244785308837890625e+00 -1.791900753974914551e+00 9.651758074760437012e-01
-3.232211828231811523e+00 8.053798675537109375e+00 -1.791900753974914551e+00 9.651758074760437012e-01
-3.361206054687500000e+00 8.000820159912109375e+00 -1.791900753974914551e+00 9.651758074760437012e-01
-3.489331007003784180e+00 7.945771217346191406e+00 -1.791900753974914551e+00 9.651758670806884766e-01
-3.763305664062500000e+00 7.872304439544677734e+00 -1.801688671112060547e+00 9.649890065193176270e-01
-4.076430797576904297e+00 7.867167949676513672e+00 -1.829557776451110840e+00 9.644570946693420410e-01
-4.399531364440917969e+00 7.861494064331054688e+00 -1.860173106193542480e+00 9.638732671737670898e-01
-4.565180778503417969e+00 7.858457088470458984e+00 -1.876572370529174805e+00 9.635606408119201660e-01
-5.080439567565917969e+00 7.848485946655273438e+00 -1.930476546287536621e+00 9.625337719917297363e-01
-5.225046157836914062e+00 7.794384479522705078e+00 -1.937577962875366211e+00 9.623986482620239258e-01
-5.606557369232177734e+00 7.549687385559082031e+00 -1.941725611686706543e+00 9.623196125030517578e-01
