2.385551691055297852e+00 1.916992105543613434e-02 -9.248658418655395508e-01 9.898176789283752441e-01
2.402558565139770508e+00 9.657226502895355225e-02 -9.321842789649963379e-01 9.897375106811523438e-01
2.408349514007568359e+00 1.355956941843032837e-01 -9.351542592048645020e-01 9.897049665451049805e-01
2.412285089492797852e+00 1.747460961341857910e-01 -9.376516342163085938e-01 9.896776080131530762e-01
2.412787914276123047e+00 2.922070324420928955e-01 -9.422305226325988770e-01 9.896274805068969727e-01
2.397797822952270508e+00 4.482226371765136719e-01 -9.456866383552551270e-01 9.895896315574645996e-01
2.390795946121215820e+00 4.867968559265136719e-01 -9.458892345428466797e-01 9.895874261856079102e-01
2.382128953933715820e+00 5.250293016433715820e-01 -9.456759691238403320e-01 9.895897507667541504e-01
2.371801614761352539e+00 5.628710985183715820e-01 -9.450471401214599609e-01 9.895966649055480957e-01
2.359848499298095703e+00 6.002441048622131348e-01 -9.440049529075622559e-01 9.896080493927001953e-01
2.346284151077270508e+00 6.371093392372131348e-01 -9.425518512725830078e-01 9.896239638328552246e-01
2.361161947250366211e+00 7.650879025459289551e-01 -9.622375369071960449e-01 9.894084334373474121e-01
5.080370903015136719e+00 1.736894488334655762e+00 -2.081501007080078125e+00 9.772294759750366211e-01
5.051811218261718750e+00 1.818290948867797852e+00 -2.081501007080078125e+00 9.772294759750366211e-01
5.021938323974609375e+00 1.899248003959655762e+00 -2.081501007080078125e+00 9.772294759750366211e-01
4.990776062011718750e+00 1.979697227478027344e+00 -2.081501007080078125e+00 9.772294759750366211e-01
4.958315372467041016e+00 2.059638738632202148e+00 -2.081501007080078125e+00 9.772294759750366211e-01
4.737016677856445312e+00 2.527382850646972656e+00 -2.081501007080078125e+00 9.772294759750366211e-01
4.695781230926513672e+00 2.603193283081054688e+00 -2.081501007080078125e+00 9.772294759750366211e-01
4.653349399566650391e+00 2.678310394287109375e+00 -2.081501007080078125e+00 9.772294759750366211e-01
4.518871784210205078e+00 2.899433612823486328e+00 -2.081501007080078125e+00 9.772295355796813965e-01
4.373906135559082031e+00 3.113837718963623047e+00 -2.081501007080078125e+00 9.772294759750366211e-01
4.323300838470458984e+00 3.183701038360595703e+00 -2.081501007080078125e+00 9.772295355796813965e-01
4.271582126617431641e+00 3.252792835235595703e+00 -2.081501007080078125e+00 9.772294759750366211e-01
4.109872817993164062e+00 3.454843759536743164e+00 -2.081501007080078125e+00 9.772294759750366211e-01
4.053822994232177734e+00 3.520439386367797852e+00 -2.081501007080078125e+00 9.772294759750366211e-01
3.996728420257568359e+00 3.585126876831054688e+00 -2.081501007080078125e+00 9.772294759750366211e-01
3.819321155548095703e+00 3.773554563522338867e+00 -2.081501007080078125e+00 9.772295355796813965e-01
3.758188486099243164e+00 3.834453105926513672e+00 -2.081501007080078125e+00 9.772294759750366211e-01
3.633041858673095703e+00 3.953222513198852539e+00 -2.081501007080078125e+00 9.772294759750366211e-01
3.569047689437866211e+00 4.011093616485595703e+00 -2.081501007080078125e+00 9.772294759750366211e-01
3.304023265838623047e+00 4.232060432434082031e+00 -2.081501007080078125e+00 9.772295355796813965e-01
3.166327953338623047e+00 4.336064338684082031e+00 -2.081501007080078125e+00 9.772294759750366211e-01
2.953696250915527344e+00 4.483603477478027344e+00 -2.081501007080078125e+00 9.772294759750366211e-01
2.881269454956054688e+00 4.530488014221191406e+00 -2.081501007080078125e+00 9.772294759750366211e-01
2.431743144989013672e+00 4.786826133728027344e+00 -2.081501007080078125e+00 9.772294759750366211e-01
2.276669979095458984e+00 4.862480163574218750e+00 -2.081501007080078125e+00 9.772295355796813965e-01
2.198237180709838867e+00 4.898437500000000000e+00 -2.081501007080078125e+00 9.772295355796813965e-01
2.039702177047729492e+00 4.966542720794677734e+00 -2.081501007080078125e+00 9.772295355796813965e-01
1.959633708000183105e+00 4.998681545257568359e+00 -2.081501007080078125e+00 9.772294759750366211e-01
1.552114248275756836e+00 5.139843463897705078e+00 -2.081501007080078125e+00 9.772294759750366211e-01
1.469321250915527344e+00 5.164111137390136719e+00 -2.081501007080078125e+00 9.772294759750366211e-01
1.218754887580871582e+00 5.228906154632568359e+00 -2.081501007080078125e+00 9.772295355796813965e-01
1.134580016136169434e+00 5.247831821441650391e+00 -2.081501007080078125e+00 9.772294759750366211e-01
9.653612971305847168e-01 5.281572341918945312e+00 -2.081501007080078125e+00 9.772295355796813965e-01
7.951464653015136719e-01 5.309873104095458984e+00 -2.081501007080078125e+00 9.772294759750366211e-01
7.097216844558715820e-01 5.321962833404541016e+00 -2.081501007080078125e+00 9.772294759750366211e-01
6.241064071655273438e-01 5.332675457000732422e+00 -2.081501007080078125e+00 9.772295355796813965e-01
3.663818240165710449e-01 5.356552600860595703e+00 -2.081501007080078125e+00 9.772295355796813965e-01
2.802587747573852539e-01 5.361767292022705078e+00 -2.081501007080078125e+00 9.772294759750366211e-01
1.940429657697677612e-01 5.365556716918945312e+00 -2.081501007080078125e+00 9.772295355796813965e-01
-6.474120914936065674e-02 5.368681430816650391e+00 -2.081501007080078125e+00 9.772295355796813965e-01
-1.510156244039535522e-01 5.366952896118164062e+00 -2.081501007080078125e+00 9.772294759750366211e-01
-2.371826171875000000e-01 5.363837718963623047e+00 -2.081501007080078125e+00 9.772294759750366211e-01
-3.233447074890136719e-01 5.359316349029541016e+00 -2.081501007080078125e+00 9.772295355796813965e-01
-7.524414062500000000e-01 5.316093444824218750e+00 -2.081501007080078125e+00 9.772294759750366211e-01
-9.228808283805847168e-01 5.289160251617431641e+00 -2.081501007080078125e+00 9.772295355796813965e-01
-1.007763624191284180e+00 5.273642539978027344e+00 -2.081501007080078125e+00 9.772295355796813965e-01
-1.092368125915527344e+00 5.256767272949218750e+00 -2.081501007080078125e+00 9.772295355796813965e-01
-1.176699161529541016e+00 5.238544940948486328e+00 -2.081501007080078125e+00 9.772294759750366211e-01
-1.260722637176513672e+00 5.218964576721191406e+00 -2.081501007080078125e+00 9.772294759750366211e-01
-1.344418883323669434e+00 5.198027133941650391e+00 -2.081501007080078125e+00 9.772294759750366211e-01
-1.427768468856811523e+00 5.175751686096191406e+00 -2.081501007080078125e+00 9.772295355796813965e-01
-1.593354463577270508e+00 5.127197265625000000e+00 -2.081501007080078125e+00 9.772295355796813965e-01
-1.675537109375000000e+00 5.100937366485595703e+00 -2.081501007080078125e+00 9.772294759750366211e-01
-1.757280230522155762e+00 5.073359489440917969e+00 -2.081501007080078125e+00 9.772294759750366211e-01
-1.838574171066284180e+00 5.044472694396972656e+00 -2.081501007080078125e+00 9.772294759750366211e-01
-1.919399380683898926e+00 5.014277458190917969e+00 -2.081501007080078125e+00 9.772294759750366211e-01
-1.999721646308898926e+00 4.982773303985595703e+00 -2.081501007080078125e+00 9.772295355796813965e-01
-2.079531192779541016e+00 4.949999809265136719e+00 -2.081501007080078125e+00 9.772294759750366211e-01
-2.237519502639770508e+00 4.880624771118164062e+00 -2.081501007080078125e+00 9.772294759750366211e-01
-2.315654277801513672e+00 4.844042778015136719e+00 -2.081501007080078125e+00 9.772294759750366211e-01
-2.393193244934082031e+00 4.806200981140136719e+00 -2.081501007080078125e+00 9.772295355796813965e-01
-2.470117092132568359e+00 4.767128944396972656e+00 -2.081501007080078125e+00 9.772294759750366211e-01
-2.696977376937866211e+00 4.642539024353027344e+00 -2.081501007080078125e+00 9.772295355796813965e-01
-2.771230459213256836e+00 4.598613262176513672e+00 -2.081501007080078125e+00 9.772294759750366211e-01
-3.060893535614013672e+00 4.411113262176513672e+00 -2.081501007080078125e+00 9.772294759750366211e-01
-3.131376981735229492e+00 4.361347675323486328e+00 -2.081501007080078125e+00 9.772295355796813965e-01
-3.269907236099243164e+00 4.258476257324218750e+00 -2.081501007080078125e+00 9.772295355796813965e-01
-3.471328020095825195e+00 4.095947265625000000e+00 -2.081501007080078125e+00 9.772295355796813965e-01
-3.601147413253784180e+00 3.982294797897338867e+00 -2.081501007080078125e+00 9.772295355796813965e-01
-3.664677619934082031e+00 3.923915863037109375e+00 -2.081501007080078125e+00 9.772294759750366211e-01
-3.727255821228027344e+00 3.864521503448486328e+00 -2.081501007080078125e+00 9.772294759750366211e-01
-3.909150362014770508e+00 3.680419921875000000e+00 -2.081501007080078125e+00 9.772294759750366211e-01
-3.967792987823486328e+00 3.617119073867797852e+00 -2.081501007080078125e+00 9.772295355796813965e-01
-4.025400161743164062e+00 3.552890539169311523e+00 -2.081501007080078125e+00 9.772295355796813965e-01
-4.137495040893554688e+00 3.421718597412109375e+00 -2.081501007080078125e+00 9.772294759750366211e-01
-4.245307445526123047e+00 3.286992073059082031e+00 -2.081501007080078125e+00 9.772294759750366211e-01
-4.297573089599609375e+00 3.218359231948852539e+00 -2.081501007080078125e+00 9.772294759750366211e-01
-4.447675704956054688e+00 3.007509708404541016e+00 -2.081501007080078125e+00 9.772295355796813965e-01
-4.587441444396972656e+00 2.789687395095825195e+00 -2.081501007080078125e+00 9.772294759750366211e-01
-4.674711704254150391e+00 2.640839815139770508e+00 -2.081501007080078125e+00 9.772294759750366211e-01
-4.757163047790527344e+00 2.489248037338256836e+00 -2.081501007080078125e+00 9.772294759750366211e-01
-4.834687232971191406e+00 2.335107326507568359e+00 -2.081501007080078125e+00 9.772295355796813965e-01
-4.871586799621582031e+00 2.257109403610229492e+00 -2.081501007080078125e+00 9.772295355796813965e-01
-5.037035942077636719e+00 1.858837842941284180e+00 -2.081501007080078125e+00 9.772294759750366211e-01
-5.094160079956054688e+00 1.696015596389770508e+00 -2.081501007080078125e+00 9.772295355796813965e-01
-5.146032810211181641e+00 1.531445264816284180e+00 -2.081501007080078125e+00 9.772294759750366211e-01
-5.169970512390136719e+00 1.448554635047912598e+00 -2.081501007080078125e+00 9.772295355796813965e-01
-5.233774185180664062e+00 1.197734355926513672e+00 -2.081501007080078125e+00 9.772294759750366211e-01
-5.252343654632568359e+00 1.113486289978027344e+00 -2.081501007080078125e+00 9.772294759750366211e-01
-5.269557952880859375e+00 1.028945326805114746e+00 -2.081501007080078125e+00 9.772294759750366211e-01
-5.324770450592041016e+00 6.883398294448852539e-01 -2.081501007080078125e+00 9.772294759750366211e-01
-5.335141658782958984e+00 6.026855111122131348e-01 -2.081501007080078125e+00 9.772294759750366211e-01
-5.362834453582763672e+00 2.587304711341857910e-01 -2.081501007080078125e+00 9.772295355796813965e-01
-5.368381023406982422e+00 8.627929538488388062e-02 -2.081501007080078125e+00 9.772294759750366211e-01
-1.661801695823669434e+00 -8.018554747104644775e-02 -6.663001775741577148e-01 9.928568601608276367e-01
-1.668696284294128418e+00 -1.074121072888374329e-01 -6.696720719337463379e-01 9.928208589553833008e-01
-1.676831007003784180e+00 -1.621777266263961792e-01 -6.746783256530761719e-01 9.927673339843750000e-01
-1.677983403205871582e+00 -1.895605474710464478e-01 -6.762824654579162598e-01 9.927502274513244629e-01
-1.677187442779541016e+00 -2.168066352605819702e-01 -6.772761344909667969e-01 9.927396178245544434e-01
-1.669682621955871582e+00 -2.706542909145355225e-01 -6.774110198020935059e-01 9.927381873130798340e-01
-5.101103305816650391e+00 -9.960546493530273438e-01 -2.081501007080078125e+00 9.778538942337036133e-01
-5.047177791595458984e+00 -1.240703105926513672e+00 -2.081501007080078125e+00 9.778538942337036133e-01
-5.026596546173095703e+00 -1.321660161018371582e+00 -2.081501007080078125e+00 9.778538942337036133e-01
-4.957055568695068359e+00 -1.562353491783142090e+00 -2.081501007080078125e+00 9.778538942337036133e-01
-4.904292106628417969e+00 -1.720830082893371582e+00 -2.081501007080078125e+00 9.778538942337036133e-01
-4.783632755279541016e+00 -2.032285213470458984e+00 -2.081501007080078125e+00 9.778538942337036133e-01
-4.715854167938232422e+00 -2.184970617294311523e+00 -2.081501007080078125e+00 9.778538942337036133e-01
-4.643208026885986328e+00 -2.335361242294311523e+00 -2.081501007080078125e+00 9.778539538383483887e-01
-4.565766334533691406e+00 -2.483369112014770508e+00 -2.081501007080078125e+00 9.778538942337036133e-01
-4.525273323059082031e+00 -2.556425809860229492e+00 -2.081501007080078125e+00 9.778538942337036133e-01
-4.351718425750732422e+00 -2.841816425323486328e+00 -2.081501007080078125e+00 9.778538942337036133e-01
-4.258154392242431641e+00 -2.980185508728027344e+00 -2.081501007080078125e+00 9.778538942337036133e-01
-4.209721565246582031e+00 -3.048212766647338867e+00 -2.081501007080078125e+00 9.778538942337036133e-01
-3.951484203338623047e+00 -3.376269340515136719e+00 -2.081501007080078125e+00 9.778538942337036133e-01
-3.896723508834838867e+00 -3.439326047897338867e+00 -2.081501007080078125e+00 9.778538942337036133e-01
-3.784194231033325195e+00 -3.562753915786743164e+00 -2.081501007080078125e+00 9.778538942337036133e-01
-3.667753934860229492e+00 -3.682519435882568359e+00 -2.081501007080078125e+00 9.778538942337036133e-01
-3.486030101776123047e+00 -3.854990243911743164e+00 -2.081501007080078125e+00 9.778538942337036133e-01
-3.296215772628784180e+00 -4.018505573272705078e+00 -2.081501007080078125e+00 9.778538942337036133e-01
-3.231210947036743164e+00 -4.070956707000732422e+00 -2.081501007080078125e+00 9.778538942337036133e-01
-3.098730325698852539e+00 -4.172685623168945312e+00 -2.081501007080078125e+00 9.778538942337036133e-01
-3.031279325485229492e+00 -4.221923828125000000e+00 -2.081501007080078125e+00 9.778539538383483887e-01
-2.753823280334472656e+00 -4.407919883728027344e+00 -2.081501007080078125e+00 9.778538942337036133e-01
-2.682641506195068359e+00 -4.451611042022705078e+00 -2.081501007080078125e+00 9.778538942337036133e-01
-2.538208007812500000e+00 -4.535507678985595703e+00 -2.081501007080078125e+00 9.778538942337036133e-01
-2.241630792617797852e+00 -4.689198970794677734e+00 -2.081501007080078125e+00 9.778538346290588379e-01
-1.935795903205871582e+00 -4.823486328125000000e+00 -2.081501007080078125e+00 9.778538942337036133e-01
-1.858037114143371582e+00 -4.853964805603027344e+00 -2.081501007080078125e+00 9.778539538383483887e-01
-1.621967792510986328e+00 -4.937870979309082031e+00 -2.081501007080078125e+00 9.778538942337036133e-01
-1.542416930198669434e+00 -4.963310241699218750e+00 -2.081501007080078125e+00 9.778538346290588379e-01
-1.462460875511169434e+00 -4.987431526184082031e+00 -2.081501007080078125e+00 9.778539538383483887e-01
-1.382128834724426270e+00 -5.010293006896972656e+00 -2.081501007080078125e+00 9.778538942337036133e-01
-1.301440358161926270e+00 -5.031855583190917969e+00 -2.081501007080078125e+00 9.778538942337036133e-01
-1.057446241378784180e+00 -5.088740348815917969e+00 -2.081501007080078125e+00 9.778538942337036133e-01
-9.755370616912841797e-01 -5.105068206787109375e+00 -2.081501007080078125e+00 9.778538942337036133e-01
-8.933789134025573730e-01 -5.120087623596191406e+00 -2.081501007080078125e+00 9.778538942337036133e-01
-7.283984422683715820e-01 -5.146152019500732422e+00 -2.081501007080078125e+00 9.778538942337036133e-01
-6.456054449081420898e-01 -5.157187461853027344e+00 -2.081501007080078125e+00 9.778538942337036133e-01
-3.963330090045928955e-01 -5.182314395904541016e+00 -2.081501007080078125e+00 9.778538942337036133e-01
1.043994128704071045e-01 -5.196396350860595703e+00 -2.081501007080078125e+00 9.778538942337036133e-01
6.041552424430847168e-01 -5.162207126617431641e+00 -2.081501007080078125e+00 9.778538942337036133e-01
7.697265744209289551e-01 -5.140126705169677734e+00 -2.081501007080078125e+00 9.778538942337036133e-01
9.345019459724426270e-01 -5.112753868103027344e+00 -2.081501007080078125e+00 9.778538346290588379e-01
1.016542911529541016e+00 -5.097070217132568359e+00 -2.081501007080078125e+00 9.778538346290588379e-01
1.179794907569885254e+00 -5.061767578125000000e+00 -2.081501007080078125e+00 9.778538942337036133e-01
1.260981440544128418e+00 -5.042158126831054688e+00 -2.081501007080078125e+00 9.778538942337036133e-01
1.740517497062683105e+00 -4.897343635559082031e+00 -2.081501007080078125e+00 9.778538942337036133e-01
1.818989157676696777e+00 -4.868730545043945312e+00 -2.081501007080078125e+00 9.778539538383483887e-01
1.974501967430114746e+00 -4.807783126831054688e+00 -2.081501007080078125e+00 9.778538942337036133e-01
2.051498889923095703e+00 -4.775439262390136719e+00 -2.081501007080078125e+00 9.778538942337036133e-01
2.127973556518554688e+00 -4.741855144500732422e+00 -2.081501007080078125e+00 9.778538942337036133e-01
2.279252767562866211e+00 -4.671025276184082031e+00 -2.081501007080078125e+00 9.778538942337036133e-01
2.354013681411743164e+00 -4.633798599243164062e+00 -2.081501007080078125e+00 9.778538942337036133e-01
2.428168773651123047e+00 -4.595370769500732422e+00 -2.081501007080078125e+00 9.778538942337036133e-01
2.501694202423095703e+00 -4.555761814117431641e+00 -2.081501007080078125e+00 9.778538942337036133e-01
2.574575185775756836e+00 -4.514980316162109375e+00 -2.081501007080078125e+00 9.778538346290588379e-01
2.646796703338623047e+00 -4.473017692565917969e+00 -2.081501007080078125e+00 9.778538942337036133e-01
2.718334913253784180e+00 -4.429912090301513672e+00 -2.081501007080078125e+00 9.778538942337036133e-01
2.789165019989013672e+00 -4.385663986206054688e+00 -2.081501007080078125e+00 9.778538346290588379e-01
2.859272480010986328e+00 -4.340273380279541016e+00 -2.081501007080078125e+00 9.778538942337036133e-01
2.928647279739379883e+00 -4.293759822845458984e+00 -2.081501007080078125e+00 9.778538942337036133e-01
2.997260570526123047e+00 -4.246152400970458984e+00 -2.081501007080078125e+00 9.778538942337036133e-01
3.065102577209472656e+00 -4.197441101074218750e+00 -2.081501007080078125e+00 9.778538942337036133e-01
3.198403358459472656e+00 -4.096786975860595703e+00 -2.081501007080078125e+00 9.778538942337036133e-01
3.328393459320068359e+00 -3.991894483566284180e+00 -2.081501007080078125e+00 9.778538942337036133e-01
3.392109394073486328e+00 -3.937900304794311523e+00 -2.081501007080078125e+00 9.778538942337036133e-01
3.454951047897338867e+00 -3.882870912551879883e+00 -2.081501007080078125e+00 9.778538942337036133e-01
3.516904115676879883e+00 -3.826855421066284180e+00 -2.081501007080078125e+00 9.778538942337036133e-01
3.577929496765136719e+00 -3.769853353500366211e+00 -2.081501007080078125e+00 9.778538942337036133e-01
3.697231292724609375e+00 -3.652929544448852539e+00 -2.081501007080078125e+00 9.778538942337036133e-01
3.755449056625366211e+00 -3.593056678771972656e+00 -2.081501007080078125e+00 9.778538942337036133e-01
3.868969678878784180e+00 -3.470536947250366211e+00 -2.081501007080078125e+00 9.778538346290588379e-01
3.924233198165893555e+00 -3.407900333404541016e+00 -2.081501007080078125e+00 9.778538942337036133e-01
4.185097694396972656e+00 -3.081943273544311523e+00 -2.081501007080078125e+00 9.778538942337036133e-01
4.234081745147705078e+00 -3.014296770095825195e+00 -2.081501007080078125e+00 9.778538942337036133e-01
4.328750133514404297e+00 -2.876689434051513672e+00 -2.081501007080078125e+00 9.778538942337036133e-01
4.374423503875732422e+00 -2.806757688522338867e+00 -2.081501007080078125e+00 9.778538942337036133e-01
4.698159217834472656e+00 -2.222792863845825195e+00 -2.081501007080078125e+00 9.778538346290588379e-01
4.733271598815917969e+00 -2.147011756896972656e+00 -2.081501007080078125e+00 9.778538346290588379e-01
4.767153263092041016e+00 -2.070673704147338867e+00 -2.081501007080078125e+00 9.778538942337036133e-01
4.831230163574218750e+00 -1.916406154632568359e+00 -2.081501007080078125e+00 9.778538942337036133e-01
2.175878763198852539e+00 -8.229003548622131348e-01 -9.316421151161193848e-01 9.900264143943786621e-01
2.127744197845458984e+00 -7.658398151397705078e-01 -9.056465029716491699e-01 9.903033971786499023e-01
2.147060394287109375e+00 -6.577832102775573730e-01 -8.993132114410400391e-01 9.903708696365356445e-01
2.176645517349243164e+00 -5.536425709724426270e-01 -8.994724750518798828e-01 9.903692007064819336e-01
2.183871984481811523e+00 -5.182714462280273438e-01 -8.988984227180480957e-01 9.903752803802490234e-01
2.189760684967041016e+00 -4.826367199420928955e-01 -8.980128169059753418e-01 9.903846979141235352e-01
2.194838762283325195e+00 -4.468945264816284180e-01 -8.970356583595275879e-01 9.903951287269592285e-01
2.206308603286743164e+00 -3.758496046066284180e-01 -8.963217139244079590e-01 9.904027581214904785e-01
2.212558507919311523e+00 -2.679589688777923584e-01 -8.925698399543762207e-01 9.904426932334899902e-01
2.211718797683715820e+00 -2.318652272224426270e-01 -8.906133770942687988e-01 9.904635548591613770e-01
2.209433555603027344e+00 -1.957910060882568359e-01 -8.883117437362670898e-01 9.904881119728088379e-01
2.188906192779541016e+00 -1.758789084851741791e-02 -8.766523599624633789e-01 9.906123876571655273e-01
2.195146322250366211e+00 8.823242038488388062e-02 -8.798313736915588379e-01 9.905784726142883301e-01
2.200590848922729492e+00 1.238964796066284180e-01 -8.826987743377685547e-01 9.905478954315185547e-01
2.205722570419311523e+00 1.597753912210464478e-01 -8.856718540191650391e-01 9.905162453651428223e-01
2.212558507919311523e+00 2.679589688777923584e-01 -8.925706148147583008e-01 9.904426932334899902e-01
2.211943387985229492e+00 3.040136694908142090e-01 -8.941769003868103027e-01 9.904255867004394531e-01
2.206308603286743164e+00 3.758398294448852539e-01 -8.963224887847900391e-01 9.904027581214904785e-01
2.189755916595458984e+00 4.826464653015136719e-01 -8.980135917663574219e-01 9.903846979141235352e-01
2.176650285720825195e+00 5.536523461341857910e-01 -8.994734287261962891e-01 9.903691411018371582e-01
2.168105363845825195e+00 5.887206792831420898e-01 -8.997340202331542969e-01 9.903663992881774902e-01
2.158232450485229492e+00 6.234570145606994629e-01 -8.996810913085937500e-01 9.903669357299804688e-01
2.134599447250366211e+00 6.916796565055847168e-01 -8.986344933509826660e-01 9.903780817985534668e-01
2.127763509750366211e+00 7.658495903015136719e-01 -9.056541323661804199e-01 9.903032779693603516e-01
2.175898313522338867e+00 8.229101300239562988e-01 -9.316496253013610840e-01 9.900263547897338867e-01
4.831230163574218750e+00 1.916415929794311523e+00 -2.081501007080078125e+00 9.778538942337036133e-01
4.799814224243164062e+00 1.993808507919311523e+00 -2.081501007080078125e+00 9.778538346290588379e-01
4.767158031463623047e+00 2.070663928985595703e+00 -2.081501007080078125e+00 9.778538942337036133e-01
4.733271598815917969e+00 2.147001981735229492e+00 -2.081501007080078125e+00 9.778538942337036133e-01
4.661830902099609375e+00 2.297978401184082031e+00 -2.081501007080078125e+00 9.778538942337036133e-01
4.504599571228027344e+00 2.592695236206054688e+00 -2.081501007080078125e+00 9.778538346290588379e-01
4.418960094451904297e+00 2.736093759536743164e+00 -2.081501007080078125e+00 9.778538942337036133e-01
4.374418735504150391e+00 2.806747913360595703e+00 -2.081501007080078125e+00 9.778538942337036133e-01
4.328750133514404297e+00 2.876679658889770508e+00 -2.081501007080078125e+00 9.778538942337036133e-01
4.185102462768554688e+00 3.081943273544311523e+00 -2.081501007080078125e+00 9.778538942337036133e-01
4.135038852691650391e+00 3.148808479309082031e+00 -2.081501007080078125e+00 9.778538346290588379e-01
4.083901405334472656e+00 3.214833974838256836e+00 -2.081501007080078125e+00 9.778538942337036133e-01
3.978491067886352539e+00 3.344394445419311523e+00 -2.081501007080078125e+00 9.778538942337036133e-01
3.812705039978027344e+00 3.532236337661743164e+00 -2.081501007080078125e+00 9.778538942337036133e-01
3.638046741485595703e+00 3.711865186691284180e+00 -2.081501007080078125e+00 9.778538942337036133e-01
3.516899347305297852e+00 3.826845645904541016e+00 -2.081501007080078125e+00 9.778538942337036133e-01
3.392109394073486328e+00 3.937890529632568359e+00 -2.081501007080078125e+00 9.778538942337036133e-01
3.263823270797729492e+00 4.044853210449218750e+00 -2.081501007080078125e+00 9.778538942337036133e-01
2.928647279739379883e+00 4.293759822845458984e+00 -2.081501007080078125e+00 9.778538942337036133e-01
2.354008674621582031e+00 4.633789062500000000e+00 -2.081501007080078125e+00 9.778538942337036133e-01
2.279247999191284180e+00 4.671025276184082031e+00 -2.081501007080078125e+00 9.778538942337036133e-01
2.203891515731811523e+00 4.707040786743164062e+00 -2.081501007080078125e+00 9.778538942337036133e-01
2.127968788146972656e+00 4.741855144500732422e+00 -2.081501007080078125e+00 9.778538942337036133e-01
2.051503896713256836e+00 4.775429725646972656e+00 -2.081501007080078125e+00 9.778538942337036133e-01
1.974501967430114746e+00 4.807783126831054688e+00 -2.081501007080078125e+00 9.778538942337036133e-01
1.818989157676696777e+00 4.868750095367431641e+00 -2.081501007080078125e+00 9.778538942337036133e-01
1.740522384643554688e+00 4.897343635559082031e+00 -2.081501007080078125e+00 9.778538942337036133e-01
1.661601543426513672e+00 4.924677848815917969e+00 -2.081501007080078125e+00 9.778538942337036133e-01
1.502495050430297852e+00 4.975527286529541016e+00 -2.081501007080078125e+00 9.778538942337036133e-01
1.179794907569885254e+00 5.061777114868164062e+00 -2.081501007080078125e+00 9.778538346290588379e-01
1.098305583000183105e+00 5.080058574676513672e+00 -2.081501007080078125e+00 9.778539538383483887e-01
8.522167801856994629e-01 5.127089500427246094e+00 -2.081501007080078125e+00 9.778538942337036133e-01
7.697314023971557617e-01 5.140136718750000000e+00 -2.081501007080078125e+00 9.778538346290588379e-01
5.211230516433715820e-01 5.171249866485595703e+00 -2.081501007080078125e+00 9.778538942337036133e-01
4.379687309265136719e-01 5.178964614868164062e+00 -2.081501007080078125e+00 9.778538346290588379e-01
2.713183462619781494e-01 5.190351486206054688e+00 -2.081501007080078125e+00 9.778538942337036133e-01
1.878906190395355225e-01 5.194052696228027344e+00 -2.081501007080078125e+00 9.778538346290588379e-01
-1.461328119039535522e-01 5.195390701293945312e+00 -2.081501007080078125e+00 9.778538942337036133e-01
-2.296044826507568359e-01 5.192372798919677734e+00 -2.081501007080078125e+00 9.778538942337036133e-01
-3.963330090045928955e-01 5.182314395904541016e+00 -2.081501007080078125e+00 9.778538942337036133e-01
-5.626513361930847168e-01 5.166903972625732422e+00 -2.081501007080078125e+00 9.778538942337036133e-01
-6.456103324890136719e-01 5.157187461853027344e+00 -2.081501007080078125e+00 9.778538942337036133e-01
-9.755468368530273438e-01 5.105068206787109375e+00 -2.081501007080078125e+00 9.778538942337036133e-01
-1.057451128959655762e+00 5.088740348815917969e+00 -2.081501007080078125e+00 9.778538346290588379e-01
-1.139077067375183105e+00 5.071093559265136719e+00 -2.081501007080078125e+00 9.778538346290588379e-01
-1.301440358161926270e+00 5.031855583190917969e+00 -2.081501007080078125e+00 9.778538942337036133e-01
-1.382128834724426270e+00 5.010302543640136719e+00 -2.081501007080078125e+00 9.778538942337036133e-01
-1.462460875511169434e+00 4.987441062927246094e+00 -2.081501007080078125e+00 9.778538942337036133e-01
-1.542421817779541016e+00 4.963300704956054688e+00 -2.081501007080078125e+00 9.778538942337036133e-01
-1.621972560882568359e+00 4.937870979309082031e+00 -2.081501007080078125e+00 9.778538942337036133e-01
-2.013051748275756836e+00 4.791757583618164062e+00 -2.081501007080078125e+00 9.778538942337036133e-01
-2.089794874191284180e+00 4.758798599243164062e+00 -2.081501007080078125e+00 9.778538942337036133e-01
-2.165991067886352539e+00 4.724599361419677734e+00 -2.081501007080078125e+00 9.778538942337036133e-01
-2.464995145797729492e+00 4.575722694396972656e+00 -2.081501007080078125e+00 9.778538942337036133e-01
-2.753828048706054688e+00 4.407919883728027344e+00 -2.081501007080078125e+00 9.778538942337036133e-01
-2.824301719665527344e+00 4.363105297088623047e+00 -2.081501007080078125e+00 9.778538942337036133e-01
-2.963042020797729492e+00 4.270097732543945312e+00 -2.081501007080078125e+00 9.778538942337036133e-01
-3.098725557327270508e+00 4.172685623168945312e+00 -2.081501007080078125e+00 9.778538942337036133e-01
-3.296205997467041016e+00 4.018505573272705078e+00 -2.081501007080078125e+00 9.778538942337036133e-01
-3.608100414276123047e+00 3.740976572036743164e+00 -2.081501007080078125e+00 9.778539538383483887e-01
-3.667748928070068359e+00 3.682519435882568359e+00 -2.081501007080078125e+00 9.778538942337036133e-01
-3.726454973220825195e+00 3.623115062713623047e+00 -2.081501007080078125e+00 9.778538942337036133e-01
-3.784189462661743164e+00 3.562763690948486328e+00 -2.081501007080078125e+00 9.778538942337036133e-01
-3.951484203338623047e+00 3.376259803771972656e+00 -2.081501007080078125e+00 9.778538942337036133e-01
-4.005224704742431641e+00 3.312333822250366211e+00 -2.081501007080078125e+00 9.778538942337036133e-01
-4.057934284210205078e+00 3.247539043426513672e+00 -2.081501007080078125e+00 9.778538942337036133e-01
-4.160200119018554688e+00 3.115478515625000000e+00 -2.081501007080078125e+00 9.778538942337036133e-01
-4.258154392242431641e+00 2.980175733566284180e+00 -2.081501007080078125e+00 9.778538942337036133e-01
-4.483613014221191406e+00 2.628798723220825195e+00 -2.081501007080078125e+00 9.778538942337036133e-01
-4.525273323059082031e+00 2.556416034698486328e+00 -2.081501007080078125e+00 9.778538942337036133e-01
-4.605082988739013672e+00 2.409687519073486328e+00 -2.081501007080078125e+00 9.778538942337036133e-01
-4.643208026885986328e+00 2.335390567779541016e+00 -2.081501007080078125e+00 9.778538942337036133e-01
-4.680136680603027344e+00 2.260458946228027344e+00 -2.081501007080078125e+00 9.778538942337036133e-01
-4.715854167938232422e+00 2.184970617294311523e+00 -2.081501007080078125e+00 9.778538942337036133e-01
-4.783632755279541016e+00 2.032304525375366211e+00 -2.081501007080078125e+00 9.778538942337036133e-01
-4.815673828125000000e+00 1.955156207084655762e+00 -2.081501007080078125e+00 9.778538942337036133e-01
-4.846464633941650391e+00 1.877539038658142090e+00 -2.081501007080078125e+00 9.778538942337036133e-01
-4.957060337066650391e+00 1.562343716621398926e+00 -2.081501007080078125e+00 9.778538942337036133e-01
-5.004706859588623047e+00 1.402265548706054688e+00 -2.081501007080078125e+00 9.778538942337036133e-01
-5.066464900970458984e+00 1.159443378448486328e+00 -2.081501007080078125e+00 9.778538942337036133e-01
-5.084438323974609375e+00 1.077880859375000000e+00 -2.081501007080078125e+00 9.778538942337036133e-01
-1.669687509536743164e+00 2.706347703933715820e-01 -6.774120926856994629e-01 9.927381873130798340e-01
-1.677187442779541016e+00 2.168066352605819702e-01 -6.772778034210205078e-01 9.927396178245544434e-01
-1.676831007003784180e+00 1.621777266263961792e-01 -6.746783256530761719e-01 9.927673339843750000e-01
-1.668701171875000000e+00 1.074121072888374329e-01 -6.696734428405761719e-01 9.928207993507385254e-01
-1.661801695823669434e+00 8.017577975988388062e-02 -6.663020253181457520e-01 9.928568601608276367e-01
-1.653076171875000000e+00 5.314452946186065674e-02 -6.623740792274475098e-01 9.928988218307495117e-01
-1.640976548194885254e+00 2.637695334851741791e-02 -6.572717428207397461e-01 9.929533004760742188e-01
-1.384780287742614746e+00 0.000000000000000000e+00 -5.724703669548034668e-01 9.940241575241088867e-01
-1.396054625511169434e+00 -2.244140580296516418e-02 -5.772062540054321289e-01 9.939748644828796387e-01
-1.405766606330871582e+00 -4.519531130790710449e-02 -5.814489722251892090e-01 9.939307570457458496e-01
-1.413867115974426270e+00 -6.821288913488388062e-02 -5.851753354072570801e-01 9.938919544219970703e-01
-1.420278310775756836e+00 -9.142577648162841797e-02 -5.883625745773315430e-01 9.938587546348571777e-01
-1.424960851669311523e+00 -1.147363260388374329e-01 -5.909899473190307617e-01 9.938314557075500488e-01
-1.427880883216857910e+00 -1.381054669618606567e-01 -5.930435061454772949e-01 9.938100576400756836e-01
-1.427529215812683105e+00 -1.612597554922103882e-01 -5.938995480537414551e-01 9.938011765480041504e-01
-1.424174785614013672e+00 -1.841015517711639404e-01 -5.936550498008728027e-01 9.938036799430847168e-01
-1.411723613739013672e+00 -2.288281172513961792e-01 -5.912277102470397949e-01 9.938289523124694824e-01
-1.482211828231811523e+00 -3.392089903354644775e-01 -6.285891532897949219e-01 9.934402704238891602e-01
-1.580986261367797852e+00 -3.886523246765136719e-01 -6.730401515960693359e-01 9.929780364036560059e-01
-4.848330020904541016e+00 -1.358437418937683105e+00 -2.081501007080078125e+00 9.784424304962158203e-01
-4.825878620147705078e+00 -1.436181664466857910e+00 -2.081501007080078125e+00 9.784424304962158203e-01
-4.751059532165527344e+00 -1.667050719261169434e+00 -2.081501007080078125e+00 9.784424304962158203e-01
-4.723661899566650391e+00 -1.743183612823486328e+00 -2.081501007080078125e+00 9.784424304962158203e-01
-4.695038795471191406e+00 -1.818857431411743164e+00 -2.081501007080078125e+00 9.784424304962158203e-01
-4.665200233459472656e+00 -1.894081950187683105e+00 -2.081501007080078125e+00 9.784424304962158203e-01
-4.634164810180664062e+00 -1.968788981437683105e+00 -2.081501007080078125e+00 9.784424304962158203e-01
-4.601933479309082031e+00 -2.043017625808715820e+00 -2.081501007080078125e+00 9.784424304962158203e-01
-4.533911228179931641e+00 -2.189833879470825195e+00 -2.081501007080078125e+00 9.784424304962158203e-01
-4.423110485076904297e+00 -2.405781269073486328e+00 -2.081501007080078125e+00 9.784424304962158203e-01
-4.383886814117431641e+00 -2.476533174514770508e+00 -2.081501007080078125e+00 9.784424304962158203e-01
-4.343520641326904297e+00 -2.546669960021972656e+00 -2.081501007080078125e+00 9.784424304962158203e-01
-4.259443283081054688e+00 -2.684931516647338867e+00 -2.081501007080078125e+00 9.784424304962158203e-01
-4.078188419342041016e+00 -2.952968597412109375e+00 -2.081501007080078125e+00 9.784424304962158203e-01
-4.030204772949218750e+00 -3.018124818801879883e+00 -2.081501007080078125e+00 9.784424304962158203e-01
-3.981196165084838867e+00 -3.082499980926513672e+00 -2.081501007080078125e+00 9.784424304962158203e-01
-3.880087852478027344e+00 -3.208827972412109375e+00 -2.081501007080078125e+00 9.784424304962158203e-01
-3.828022480010986328e+00 -3.270781278610229492e+00 -2.081501007080078125e+00 9.784423708915710449e-01
-3.774970531463623047e+00 -3.331865072250366211e+00 -2.081501007080078125e+00 9.784424304962158203e-01
-3.720942258834838867e+00 -3.392099618911743164e+00 -2.081501007080078125e+00 9.784424304962158203e-01
-3.495371103286743164e+00 -3.624101400375366211e+00 -2.081501007080078125e+00 9.784424304962158203e-01
-3.436689376831054688e+00 -3.679794788360595703e+00 -2.081501007080078125e+00 9.784424304962158203e-01
-3.255361318588256836e+00 -3.841132640838623047e+00 -2.081501007080078125e+00 9.784424304962158203e-01
-3.130253791809082031e+00 -3.943759679794311523e+00 -2.081501007080078125e+00 9.784424304962158203e-01
-3.066474437713623047e+00 -3.993554592132568359e+00 -2.081501007080078125e+00 9.784424304962158203e-01
-3.001909017562866211e+00 -4.042314529418945312e+00 -2.081501007080078125e+00 9.784423708915710449e-01
-2.936567306518554688e+00 -4.090019226074218750e+00 -2.081501007080078125e+00 9.784424304962158203e-01
-2.870468616485595703e+00 -4.136679649353027344e+00 -2.081501007080078125e+00 9.784424304962158203e-01
-2.736054658889770508e+00 -4.226787090301513672e+00 -2.081501007080078125e+00 9.784424304962158203e-01
-2.667788028717041016e+00 -4.270205020904541016e+00 -2.081501007080078125e+00 9.784424304962158203e-01
-2.598832845687866211e+00 -4.312519550323486328e+00 -2.081501007080078125e+00 9.784424304962158203e-01
-2.529189348220825195e+00 -4.353720664978027344e+00 -2.081501007080078125e+00 9.784424304962158203e-01
-2.458906173706054688e+00 -4.393798828125000000e+00 -2.081501007080078125e+00 9.784424304962158203e-01
-2.387978553771972656e+00 -4.432744026184082031e+00 -2.081501007080078125e+00 9.784424304962158203e-01
-2.171591758728027344e+00 -4.542675495147705078e+00 -2.081501007080078125e+00 9.784424304962158203e-01
-2.024501800537109375e+00 -4.610107421875000000e+00 -2.081501007080078125e+00 9.784424304962158203e-01
-1.724199175834655762e+00 -4.730644226074218750e+00 -2.081501007080078125e+00 9.784423708915710449e-01
-1.647954106330871582e+00 -4.757724285125732422e+00 -2.081501007080078125e+00 9.784424304962158203e-01
-1.416772484779357910e+00 -4.831601619720458984e+00 -2.081501007080078125e+00 9.784424304962158203e-01
-1.182285070419311523e+00 -4.894277095794677734e+00 -2.081501007080078125e+00 9.784424304962158203e-01
-1.103491187095642090e+00 -4.912646293640136719e+00 -2.081501007080078125e+00 9.784423708915710449e-01
-9.450536966323852539e-01 -4.945546627044677734e+00 -2.081501007080078125e+00 9.784424901008605957e-01
-8.654638528823852539e-01 -4.960116863250732422e+00 -2.081501007080078125e+00 9.784423708915710449e-01
-7.856543064117431641e-01 -4.973388671875000000e+00 -2.081501007080078125e+00 9.784423708915710449e-01
-6.254345774650573730e-01 -4.996054649353027344e+00 -2.081501007080078125e+00 9.784424304962158203e-01
-5.450683236122131348e-01 -5.005468845367431641e+00 -2.081501007080078125e+00 9.784423708915710449e-01
-3.032177686691284180e-01 -5.025898456573486328e+00 -2.081501007080078125e+00 9.784424304962158203e-01
2.023437432944774628e-02 -5.034999847412109375e+00 -2.081501007080078125e+00 9.784424304962158203e-01
1.820117086172103882e-01 -5.031747817993164062e+00 -2.081501007080078125e+00 9.784424304962158203e-01
2.628466784954071045e-01 -5.028183460235595703e+00 -2.081501007080078125e+00 9.784424304962158203e-01
3.436132669448852539e-01 -5.023300647735595703e+00 -2.081501007080078125e+00 9.784424304962158203e-01
4.242871105670928955e-01 -5.017148494720458984e+00 -2.081501007080078125e+00 9.784423708915710449e-01
5.048534870147705078e-01 -5.009677410125732422e+00 -2.081501007080078125e+00 9.784424304962158203e-01
6.655663847923278809e-01 -4.990859031677246094e+00 -2.081501007080078125e+00 9.784424304962158203e-01
7.456835508346557617e-01 -4.979531288146972656e+00 -2.081501007080078125e+00 9.784423708915710449e-01
8.255956768989562988e-01 -4.966894626617431641e+00 -2.081501007080078125e+00 9.784424304962158203e-01
9.053027033805847168e-01 -4.952998161315917969e+00 -2.081501007080078125e+00 9.784423708915710449e-01
1.063999056816101074e+00 -4.921337604522705078e+00 -2.081501007080078125e+00 9.784424304962158203e-01
1.142934560775756836e+00 -4.903603553771972656e+00 -2.081501007080078125e+00 9.784424304962158203e-01
1.377915024757385254e+00 -4.842841625213623047e+00 -2.081501007080078125e+00 9.784423708915710449e-01
1.455556631088256836e+00 -4.820068359375000000e+00 -2.081501007080078125e+00 9.784424304962158203e-01
1.837719678878784180e+00 -4.687695026397705078e+00 -2.081501007080078125e+00 9.784424304962158203e-01
1.912812471389770508e+00 -4.657568454742431641e+00 -2.081501007080078125e+00 9.784423708915710449e-01
1.987407207489013672e+00 -4.626220703125000000e+00 -2.081501007080078125e+00 9.784424304962158203e-01
2.061479330062866211e+00 -4.593700885772705078e+00 -2.081501007080078125e+00 9.784423708915710449e-01
2.135034084320068359e+00 -4.559970378875732422e+00 -2.081501007080078125e+00 9.784424304962158203e-01
2.280458927154541016e+00 -4.489013671875000000e+00 -2.081501007080078125e+00 9.784424304962158203e-01
2.352299690246582031e+00 -4.451786994934082031e+00 -2.081501007080078125e+00 9.784424304962158203e-01
2.564096689224243164e+00 -4.333261489868164062e+00 -2.081501007080078125e+00 9.784424304962158203e-01
2.633398294448852539e+00 -4.291493892669677734e+00 -2.081501007080078125e+00 9.784424304962158203e-01
2.702011585235595703e+00 -4.248622894287109375e+00 -2.081501007080078125e+00 9.784424304962158203e-01
2.769936561584472656e+00 -4.204658031463623047e+00 -2.081501007080078125e+00 9.784424304962158203e-01
2.903618097305297852e+00 -4.113486289978027344e+00 -2.081501007080078125e+00 9.784423708915710449e-01
2.969335794448852539e+00 -4.066298961639404297e+00 -2.081501007080078125e+00 9.784424304962158203e-01
3.098471641540527344e+00 -3.968769550323486328e+00 -2.081501007080078125e+00 9.784424304962158203e-01
3.224399328231811523e+00 -3.867167949676513672e+00 -2.081501007080078125e+00 9.784424304962158203e-01
3.346997022628784180e+00 -3.761562347412109375e+00 -2.081501007080078125e+00 9.784424304962158203e-01
3.407011747360229492e+00 -3.707294940948486328e+00 -2.081501007080078125e+00 9.784423708915710449e-01
3.581704139709472656e+00 -3.538798809051513672e+00 -2.081501007080078125e+00 9.784424304962158203e-01
3.638110160827636719e+00 -3.480800628662109375e+00 -2.081501007080078125e+00 9.784423708915710449e-01
3.693574190139770508e+00 -3.421875000000000000e+00 -2.081501007080078125e+00 9.784424304962158203e-01
3.905746936798095703e+00 -3.177548646926879883e+00 -2.081501007080078125e+00 9.784424304962158203e-01
3.956298828125000000e+00 -3.114394426345825195e+00 -2.081501007080078125e+00 9.784424304962158203e-01
4.005839824676513672e+00 -3.050410032272338867e+00 -2.081501007080078125e+00 9.784424304962158203e-01
4.237739086151123047e+00 -2.719062328338623047e+00 -2.081501007080078125e+00 9.784424304962158203e-01
4.322919845581054688e+00 -2.581474542617797852e+00 -2.081501007080078125e+00 9.784424304962158203e-01
4.363847732543945312e+00 -2.511679649353027344e+00 -2.081501007080078125e+00 9.784424304962158203e-01
4.442309379577636719e+00 -2.370166063308715820e+00 -2.081501007080078125e+00 9.784423708915710449e-01
4.479814529418945312e+00 -2.298486232757568359e+00 -2.081501007080078125e+00 9.784423708915710449e-01
4.585371017456054688e+00 -2.079931497573852539e+00 -2.081501007080078125e+00 9.784424304962158203e-01
2.055400371551513672e+00 -8.537988066673278809e-01 -9.200984239578247070e-01 9.904127717018127441e-01
2.035351514816284180e+00 -8.073632717132568359e-01 -9.051986336708068848e-01 9.905673265457153320e-01
1.990502834320068359e+00 -7.527831792831420898e-01 -8.797573447227478027e-01 9.908311963081359863e-01
2.014233350753784180e+00 -6.886327862739562988e-01 -8.800035119056701660e-01 9.908286333084106445e-01
2.043417930603027344e+00 -5.902832150459289551e-01 -8.792937994003295898e-01 9.908360242843627930e-01
2.051577091217041016e+00 -5.570898056030273438e-01 -8.788386583328247070e-01 9.908407330513000488e-01
2.058989286422729492e+00 -5.237206816673278809e-01 -8.782935738563537598e-01 9.908463954925537109e-01
2.076694250106811523e+00 -4.228515625000000000e-01 -8.761251568794250488e-01 9.908688664436340332e-01
2.081084012985229492e+00 -3.890234231948852539e-01 -8.752265572547912598e-01 9.908782243728637695e-01
2.085356473922729492e+00 -3.208495974540710449e-01 -8.722341656684875488e-01 9.909092783927917480e-01
2.086337804794311523e+00 -2.867675721645355225e-01 -8.706045150756835938e-01 9.909261465072631836e-01
2.090747117996215820e+00 -1.177148446440696716e-01 -8.656869530677795410e-01 9.909771680831909180e-01
2.086821317672729492e+00 -5.031250044703483582e-02 -8.629469275474548340e-01 9.910055994987487793e-01
2.083627939224243164e+00 -1.673828065395355225e-02 -8.614028692245483398e-01 9.910216331481933594e-01
2.086821317672729492e+00 5.031250044703483582e-02 -8.629472255706787109e-01 9.910055994987487793e-01
2.089199066162109375e+00 8.398437500000000000e-02 -8.643758893013000488e-01 9.909908175468444824e-01
2.090747117996215820e+00 1.177148446440696716e-01 -8.656872510910034180e-01 9.909771680831909180e-01
2.088583946228027344e+00 2.529394328594207764e-01 -8.697336912155151367e-01 9.909352064132690430e-01
2.086337804794311523e+00 2.867577970027923584e-01 -8.706048130989074707e-01 9.909261465072631836e-01
2.085356473922729492e+00 3.208495974540710449e-01 -8.722346425056457520e-01 9.909092783927917480e-01
2.071552753448486328e+00 4.565820097923278809e-01 -8.769367933273315430e-01 9.908604621887207031e-01
2.065644502639770508e+00 4.902148246765136719e-01 -8.776599168777465820e-01 9.908529520034790039e-01
2.058989286422729492e+00 5.237304568290710449e-01 -8.782942295074462891e-01 9.908463954925537109e-01
2.043422698974609375e+00 5.902929306030273438e-01 -8.792942762374877930e-01 9.908360242843627930e-01
2.034516572952270508e+00 6.233105063438415527e-01 -8.796591162681579590e-01 9.908322095870971680e-01
2.024873018264770508e+00 6.561230421066284180e-01 -8.799334764480590820e-01 9.908293485641479492e-01
1.990502834320068359e+00 7.527831792831420898e-01 -8.797578215599060059e-01 9.908311963081359863e-01
4.618207931518554688e+00 2.005976438522338867e+00 -2.081501007080078125e+00 9.784423708915710449e-01
4.585375785827636719e+00 2.079911947250366211e+00 -2.081501007080078125e+00 9.784424304962158203e-01
4.551357269287109375e+00 2.153320312500000000e+00 -2.081501007080078125e+00 9.784424304962158203e-01
4.516176700592041016e+00 2.226181507110595703e+00 -2.081501007080078125e+00 9.784424304962158203e-01
4.479824066162109375e+00 2.298466682434082031e+00 -2.081501007080078125e+00 9.784423708915710449e-01
4.442309379577636719e+00 2.370166063308715820e+00 -2.081501007080078125e+00 9.784423708915710449e-01
4.403647422790527344e+00 2.441230297088623047e+00 -2.081501007080078125e+00 9.784424304962158203e-01
4.322924613952636719e+00 2.581494092941284180e+00 -2.081501007080078125e+00 9.784423708915710449e-01
4.193500995635986328e+00 2.786787033081054688e+00 -2.081501007080078125e+00 9.784424304962158203e-01
4.148183345794677734e+00 2.853827953338623047e+00 -2.081501007080078125e+00 9.784424304962158203e-01
4.005835056304931641e+00 3.050410032272338867e+00 -2.081501007080078125e+00 9.784424304962158203e-01
3.854184389114379883e+00 3.239912033081054688e+00 -2.081501007080078125e+00 9.784423708915710449e-01
3.801620960235595703e+00 3.301415920257568359e+00 -2.081501007080078125e+00 9.784424304962158203e-01
3.748080968856811523e+00 3.362080097198486328e+00 -2.081501007080078125e+00 9.784424304962158203e-01
3.581713676452636719e+00 3.538779258728027344e+00 -2.081501007080078125e+00 9.784424304962158203e-01
3.524384737014770508e+00 3.595878839492797852e+00 -2.081501007080078125e+00 9.784424304962158203e-01
3.286127805709838867e+00 3.814853429794311523e+00 -2.081501007080078125e+00 9.784424304962158203e-01
2.969340801239013672e+00 4.066298961639404297e+00 -2.081501007080078125e+00 9.784423708915710449e-01
2.769936561584472656e+00 4.204658031463623047e+00 -2.081501007080078125e+00 9.784424304962158203e-01
2.702016592025756836e+00 4.248622894287109375e+00 -2.081501007080078125e+00 9.784424304962158203e-01
2.564096689224243164e+00 4.333251953125000000e+00 -2.081501007080078125e+00 9.784424304962158203e-01
2.423525333404541016e+00 4.413437366485595703e+00 -2.081501007080078125e+00 9.784423708915710449e-01
2.061474561691284180e+00 4.593681335449218750e+00 -2.081501007080078125e+00 9.784424901008605957e-01
1.987402319908142090e+00 4.626220703125000000e+00 -2.081501007080078125e+00 9.784424304962158203e-01
1.912802696228027344e+00 4.657538890838623047e+00 -2.081501007080078125e+00 9.784424901008605957e-01
1.837709903717041016e+00 4.687695026397705078e+00 -2.081501007080078125e+00 9.784424304962158203e-01
1.762153267860412598e+00 4.716620922088623047e+00 -2.081501007080078125e+00 9.784424304962158203e-01
1.609687447547912598e+00 4.770810604095458984e+00 -2.081501007080078125e+00 9.784424304962158203e-01
1.455551743507385254e+00 4.820068359375000000e+00 -2.081501007080078125e+00 9.784424304962158203e-01
1.377910137176513672e+00 4.842822074890136719e+00 -2.081501007080078125e+00 9.784424901008605957e-01
1.299912095069885254e+00 4.864345550537109375e+00 -2.081501007080078125e+00 9.784424304962158203e-01
1.221582055091857910e+00 4.884609222412109375e+00 -2.081501007080078125e+00 9.784424304962158203e-01
1.142934560775756836e+00 4.903613090515136719e+00 -2.081501007080078125e+00 9.784424304962158203e-01
7.456738352775573730e-01 4.979521274566650391e+00 -2.081501007080078125e+00 9.784424304962158203e-01
6.655663847923278809e-01 4.990869045257568359e+00 -2.081501007080078125e+00 9.784424304962158203e-01
5.048437118530273438e-01 5.009677410125732422e+00 -2.081501007080078125e+00 9.784424304962158203e-01
