1.183733367919921875e+01 1.567516613006591797e+01 -2.048020362854003906e+00 9.240431785583496094e-01
1.107982921600341797e+01 1.624443244934082031e+01 -2.050173521041870117e+00 9.239665269851684570e-01
1.082092285156250000e+01 1.642575073242187500e+01 -2.050846576690673828e+00 9.239425659179687500e-01
1.055903339385986328e+01 1.660293960571289062e+01 -2.051516294479370117e+00 9.239186644554138184e-01
1.029415988922119141e+01 1.677581977844238281e+01 -2.052169799804687500e+00 9.238953590393066406e-01
1.002637672424316406e+01 1.694434547424316406e+01 -2.052806854248046875e+00 9.238725900650024414e-01
9.755756378173828125e+00 1.710842704772949219e+01 -2.053427219390869141e+00 9.238504767417907715e-01
9.206274032592773438e+00 1.742316436767578125e+01 -2.054616928100585938e+00 9.238081574440002441e-01
8.646376609802246094e+00 1.771966743469238281e+01 -2.055737972259521484e+00 9.237681627273559570e-01
6.613408088684082031e+00 1.860832977294921875e+01 -2.059068202972412109e+00 9.236494898796081543e-01
4.796313285827636719e+00 1.917856407165527344e+01 -2.061220169067382812e+00 9.235728979110717773e-01
4.488159179687500000e+00 1.925589752197265625e+01 -2.061511993408203125e+00 9.235624670982360840e-01
4.178710937500000000e+00 1.932808494567871094e+01 -2.061784505844116211e+00 9.235527515411376953e-01
3.556318283081054688e+00 1.945698165893554688e+01 -2.062270879745483398e+00 9.235354065895080566e-01
2.929833889007568359e+00 1.956506729125976562e+01 -2.062678813934326172e+00 9.235209226608276367e-01
2.615258693695068359e+00 1.961108398437500000e+01 -2.062834262847900391e+00 9.235154390335083008e-01
2.299951076507568359e+00 1.965188407897949219e+01 -2.062973022460937500e+00 9.235105514526367188e-01
1.984003901481628418e+00 1.968763542175292969e+01 -2.063107728958129883e+00 9.235055446624755859e-01
1.667485356330871582e+00 1.971805572509765625e+01 -2.063222408294677734e+00 9.235015511512756348e-01
1.350483417510986328e+00 1.974320220947265625e+01 -2.063317298889160156e+00 9.234982132911682129e-01
1.033095717430114746e+00 1.976309585571289062e+01 -2.063391923904418945e+00 9.234954118728637695e-01
7.154052853584289551e-01 1.977763557434082031e+01 -2.063446998596191406e+00 9.234936237335205078e-01
3.975195288658142090e-01 1.978692245483398438e+01 -2.063482046127319336e+00 9.234923124313354492e-01
-2.385107427835464478e-01 1.978949165344238281e+01 -2.063482999801635742e+00 9.234922528266906738e-01
-8.742626905441284180e-01 1.977071189880371094e+01 -2.063389062881469727e+00 9.234955906867980957e-01
-1.191811442375183105e+00 1.975349617004394531e+01 -2.063324213027954102e+00 9.234978556632995605e-01
-2.142011642456054688e+00 1.967012596130371094e+01 -2.063010454177856445e+00 9.235090613365173340e-01
-2.457641601562500000e+00 1.963178634643554688e+01 -2.062866210937500000e+00 9.235141873359680176e-01
-2.772558450698852539e+00 1.958822250366210938e+01 -2.062702178955078125e+00 9.235199689865112305e-01
-3.086684465408325195e+00 1.953936386108398438e+01 -2.062518596649169922e+00 9.235266447067260742e-01
-3.712143421173095703e+00 1.942581939697265625e+01 -2.062063455581665039e+00 9.235427975654602051e-01
-4.642187595367431641e+00 1.921703147888183594e+01 -2.061279058456420898e+00 9.235708117485046387e-01
-4.949663162231445312e+00 1.913716697692871094e+01 -2.060979127883911133e+00 9.235815405845642090e-01
-5.560280799865722656e+00 1.896221542358398438e+01 -2.060321807861328125e+00 9.236048460006713867e-01
-5.863242149353027344e+00 1.886711883544921875e+01 -2.059964656829833984e+00 9.236176609992980957e-01
-7.057495117187500000e+00 1.843705940246582031e+01 -2.058348655700683594e+00 9.236752390861511230e-01
-7.642895221710205078e+00 1.819266510009765625e+01 -2.057430267333984375e+00 9.237078428268432617e-01
-8.219577789306640625e+00 1.792904281616210938e+01 -2.056439876556396484e+00 9.237431287765502930e-01
-8.504447937011718750e+00 1.779013633728027344e+01 -2.055917978286743164e+00 9.237617254257202148e-01
-8.786899566650390625e+00 1.764652252197265625e+01 -2.055373907089233398e+00 9.237810969352722168e-01
-9.618952751159667969e+00 1.718805694580078125e+01 -2.053640842437744141e+00 9.238429069519042969e-01
-9.890978813171386719e+00 1.702622032165527344e+01 -2.053033590316772461e+00 9.238646030426025391e-01
-8.871755599975585938e+00 1.278523445129394531e+01 -1.622538208961486816e+00 9.393334984779357910e-01
-9.123347282409667969e+00 1.228530216217041016e+01 -1.595492362976074219e+00 9.403139352798461914e-01
-9.127738952636718750e+00 1.149989223480224609e+01 -1.530812978744506836e+00 9.426628351211547852e-01
-9.129806518554687500e+00 1.113039970397949219e+01 -1.500964283943176270e+00 9.437487125396728516e-01
-8.336455345153808594e+00 9.836513519287109375e+00 -1.344374656677246094e+00 9.494662284851074219e-01
-9.324506759643554688e+00 1.065052700042724609e+01 -1.475915670394897461e+00 9.446609020233154297e-01
-1.381942081451416016e+01 1.387505817413330078e+01 -2.041800737380981445e+00 9.242648482322692871e-01
-1.425813198089599609e+01 1.342382812500000000e+01 -2.041800737380981445e+00 9.242649078369140625e-01
-1.447199440002441406e+01 1.319298839569091797e+01 -2.041800737380981445e+00 9.242648482322692871e-01
-1.468211174011230469e+01 1.295871067047119141e+01 -2.041800737380981445e+00 9.242649674415588379e-01
-1.548418140411376953e+01 1.198885726928710938e+01 -2.041800737380981445e+00 9.242649674415588379e-01
-1.586142826080322266e+01 1.148511695861816406e+01 -2.041800737380981445e+00 9.242649674415588379e-01
-1.673207664489746094e+01 1.017501926422119141e+01 -2.041800737380981445e+00 9.242649078369140625e-01
-1.705039978027343750e+01 9.632108688354492188e+00 -2.041800737380981445e+00 9.242648482322692871e-01
-1.763387870788574219e+01 8.516963005065917969e+00 -2.041800737380981445e+00 9.242649674415588379e-01
-1.776847839355468750e+01 8.232548713684082031e+00 -2.041800737380981445e+00 9.242648482322692871e-01
-1.789846801757812500e+01 7.945956707000732422e+00 -2.041800737380981445e+00 9.242649078369140625e-01
-1.959425735473632812e+01 7.590878963470458984e+00 -2.190927505493164062e+00 9.189637303352355957e-01
-1.996708488464355469e+01 6.647714614868164062e+00 -2.194200754165649414e+00 9.188477396965026855e-01
-2.035286140441894531e+01 5.351425647735595703e+00 -2.194200754165649414e+00 9.188477396965026855e-01
-2.065459823608398438e+01 4.033056735992431641e+00 -2.194200754165649414e+00 9.188476204872131348e-01
-2.082492828369140625e+01 3.032998085021972656e+00 -2.194200754165649414e+00 9.188477396965026855e-01
-2.087100219726562500e+01 2.697988271713256836e+00 -2.194200754165649414e+00 9.188476204872131348e-01
-2.094692420959472656e+01 2.025937557220458984e+00 -2.194200754165649414e+00 9.188476204872131348e-01
-2.097677612304687500e+01 1.689091801643371582e+00 -2.194200754165649414e+00 9.188476204872131348e-01
-2.100118064880371094e+01 1.351796865463256836e+00 -2.194200754165649414e+00 9.188476800918579102e-01
-2.102021408081054688e+01 1.014150381088256836e+00 -2.194200754165649414e+00 9.188476204872131348e-01
-2.103379821777343750e+01 6.762499809265136719e-01 -2.194200754165649414e+00 9.188476204872131348e-01
-1.900082778930664062e+01 9.765624781721271574e-06 -2.194200754165649414e+00 9.263451099395751953e-01
-1.899835395812988281e+01 -3.053222596645355225e-01 -2.194200754165649414e+00 9.263452291488647461e-01
-1.875600624084472656e+01 -3.040224552154541016e+00 -2.194200754165649414e+00 9.263451695442199707e-01
-1.870473098754882812e+01 -3.341220617294311523e+00 -2.194200754165649414e+00 9.263452291488647461e-01
-1.858772468566894531e+01 -3.940546751022338867e+00 -2.194200754165649414e+00 9.263451099395751953e-01
-1.852198410034179688e+01 -4.238710880279541016e+00 -2.194200754165649414e+00 9.263452291488647461e-01
-1.837621498107910156e+01 -4.831698894500732422e+00 -2.194200754165649414e+00 9.263452291488647461e-01
-1.829619789123535156e+01 -5.126357078552246094e+00 -2.194200754165649414e+00 9.263452291488647461e-01
-1.802791023254394531e+01 -6.002089500427246094e+00 -2.194200754165649414e+00 9.263452291488647461e-01
-1.792913055419921875e+01 -6.291005611419677734e+00 -2.194200754165649414e+00 9.263452291488647461e-01
-1.782572746276855469e+01 -6.578290939331054688e+00 -2.194200754165649414e+00 9.263452291488647461e-01
-1.760513877868652344e+01 -7.147695064544677734e+00 -2.194200754165649414e+00 9.263452291488647461e-01
-1.669155502319335938e+01 -9.078701019287109375e+00 -2.194200754165649414e+00 9.263451695442199707e-01
-1.639119529724121094e+01 -9.610380172729492188e+00 -2.194200754165649414e+00 9.263452291488647461e-01
-1.623464584350585938e+01 -9.872519493103027344e+00 -2.194200754165649414e+00 9.263452291488647461e-01
-1.590902805328369141e+01 -1.038909149169921875e+01 -2.194200754165649414e+00 9.263452291488647461e-01
-1.553451824188232422e+01 -1.087222671508789062e+01 -2.189625263214111328e+00 9.264929890632629395e-01
-1.526565170288085938e+01 -1.105371093750000000e+01 -2.176485300064086914e+00 9.269175529479980469e-01
-1.477162551879882812e+01 -1.106211853027343750e+01 -2.131120920181274414e+00 9.283849000930786133e-01
-1.384375190734863281e+01 -1.107907199859619141e+01 -2.047586917877197266e+00 9.310929775238037109e-01
-1.325619888305664062e+01 -1.170017528533935547e+01 -2.041800737380981445e+00 9.312808513641357422e-01
-1.306647682189941406e+01 -1.191168880462646484e+01 -2.041800737380981445e+00 9.312808513641357422e-01
-1.247727298736572266e+01 -1.252750968933105469e+01 -2.041800737380981445e+00 9.312808513641357422e-01
-1.227436733245849609e+01 -1.272638607025146484e+01 -2.041800737380981445e+00 9.312808513641357422e-01
-1.185908222198486328e+01 -1.311422824859619141e+01 -2.041800737380981445e+00 9.312808513641357422e-01
-1.164681625366210938e+01 -1.330310535430908203e+01 -2.041800737380981445e+00 9.312808513641357422e-01
-1.143154525756835938e+01 -1.348853492736816406e+01 -2.041800737380981445e+00 9.312808513641357422e-01
-1.099220657348632812e+01 -1.384890556335449219e+01 -2.041800737380981445e+00 9.312808513641357422e-01
-1.076824951171875000e+01 -1.402375984191894531e+01 -2.041800737380981445e+00 9.312808513641357422e-01
-1.054151630401611328e+01 -1.419498062133789062e+01 -2.041800737380981445e+00 9.312808513641357422e-01
-1.031206321716308594e+01 -1.436253833770751953e+01 -2.041800737380981445e+00 9.312808513641357422e-01
-1.007994079589843750e+01 -1.452638626098632812e+01 -2.041800737380981445e+00 9.312808513641357422e-01
-9.607955932617187500e+00 -1.484278297424316406e+01 -2.041800737380981445e+00 9.312808513641357422e-01
-9.098916053771972656e+00 -1.509882736206054688e+01 -2.035730838775634766e+00 9.314779639244079590e-01
-8.780466079711914062e+00 -1.511459922790527344e+01 -2.018569231033325195e+00 9.320355057716369629e-01
-8.478180885314941406e+00 -1.514956951141357422e+01 -2.004784584045410156e+00 9.324836134910583496e-01
-8.232187271118164062e+00 -1.528116130828857422e+01 -2.004431962966918945e+00 9.324950575828552246e-01
-7.233605861663818359e+00 -1.577838802337646484e+01 -2.004431962966918945e+00 9.324951171875000000e-01
-7.109247684478759766e+00 -1.618885612487792969e+01 -2.041800737380981445e+00 9.312809109687805176e-01
-6.848197937011718750e+00 -1.630101585388183594e+01 -2.041800737380981445e+00 9.312808513641357422e-01
-6.585373401641845703e+00 -1.640895462036132812e+01 -2.041800737380981445e+00 9.312808513641357422e-01
-6.320849418640136719e+00 -1.651266479492187500e+01 -2.041800737380981445e+00 9.312808513641357422e-01
-5.786982059478759766e+00 -1.670722579956054688e+01 -2.041800737380981445e+00 9.312809109687805176e-01
-5.517773151397705078e+00 -1.679806518554687500e+01 -2.041800737380981445e+00 9.312808513641357422e-01
-5.247140884399414062e+00 -1.688455963134765625e+01 -2.041800737380981445e+00 9.312808513641357422e-01
-4.701860427856445312e+00 -1.704445266723632812e+01 -2.041800737380981445e+00 9.312808513641357422e-01
-4.151738166809082031e+00 -1.718673706054687500e+01 -2.041800737380981445e+00 9.312808513641357422e-01
-2.477919816970825195e+00 -1.750660133361816406e+01 -2.041800737380981445e+00 9.312808513641357422e-01
-2.196289062500000000e+00 -1.754414939880371094e+01 -2.041800737380981445e+00 9.312808513641357422e-01
-1.914091706275939941e+00 -1.757717704772949219e+01 -2.041800737380981445e+00 9.312808513641357422e-01
-1.064824223518371582e+00 -1.764900398254394531e+01 -2.041800737380981445e+00 9.312808513641357422e-01
-7.810888290405273438e-01 -1.766382789611816406e+01 -2.041800737380981445e+00 9.312808513641357422e-01
-4.971533119678497314e-01 -1.767410087585449219e+01 -2.041800737380981445e+00 9.312808513641357422e-01
-2.130615115165710449e-01 -1.767981338500976562e+01 -2.041800737380981445e+00 9.312808513641357422e-01
3.551464676856994629e-01 -1.767752838134765625e+01 -2.041800737380981445e+00 9.312808513641357422e-01
6.391601562500000000e-01 -1.766953086853027344e+01 -2.041800737380981445e+00 9.312808513641357422e-01
9.230028986930847168e-01 -1.765698242187500000e+01 -2.041800737380981445e+00 9.312808513641357422e-01
1.489897370338439941e+00 -1.761821174621582031e+01 -2.041800737380981445e+00 9.312808513641357422e-01
1.772817373275756836e+00 -1.759199142456054688e+01 -2.041800737380981445e+00 9.312808513641357422e-01
2.337187528610229492e+00 -1.752594757080078125e+01 -2.041800737380981445e+00 9.312808513641357422e-01
2.618515491485595703e+00 -1.748612213134765625e+01 -2.041800737380981445e+00 9.312808513641357422e-01
2.899155139923095703e+00 -1.744178581237792969e+01 -2.041800737380981445e+00 9.312808513641357422e-01
3.179057598114013672e+00 -1.739293861389160156e+01 -2.041800737380981445e+00 9.312809109687805176e-01
3.458129882812500000e+00 -1.733961868286132812e+01 -2.041800737380981445e+00 9.312808513641357422e-01
4.013535022735595703e+00 -1.721957015991210938e+01 -2.041800737380981445e+00 9.312807321548461914e-01
4.564775466918945312e+00 -1.708168983459472656e+01 -2.041800737380981445e+00 9.312807917594909668e-01
3.401791810989379883e+00 -1.195603466033935547e+01 -1.435469031333923340e+00 9.511793255805969238e-01
3.544467687606811523e+00 -1.173755836486816406e+01 -1.415900230407714844e+00 9.518287181854248047e-01
5.382631778717041016e+00 -1.684187507629394531e+01 -2.041800737380981445e+00 9.312807917594909668e-01
5.921044826507568359e+00 -1.666020393371582031e+01 -2.041800737380981445e+00 9.312808513641357422e-01
6.187983036041259766e+00 -1.656291007995605469e+01 -2.041800737380981445e+00 9.312808513641357422e-01
6.717011451721191406e+00 -1.635550689697265625e+01 -2.041800737380981445e+00 9.312808513641357422e-01
6.978960037231445312e+00 -1.624546813964843750e+01 -2.041800737380981445e+00 9.312808513641357422e-01
7.239106178283691406e+00 -1.613121986389160156e+01 -2.041800737380981445e+00 9.312808513641357422e-01
7.753715515136718750e+00 -1.589028263092041016e+01 -2.041800737380981445e+00 9.312808513641357422e-01
8.008056640625000000e+00 -1.576363277435302734e+01 -2.041800737380981445e+00 9.312808513641357422e-01
8.260321617126464844e+00 -1.563291931152343750e+01 -2.041800737380981445e+00 9.312808513641357422e-01
8.758407592773437500e+00 -1.535941410064697266e+01 -2.041800737380981445e+00 9.312807917594909668e-01
9.247436523437500000e+00 -1.507004833221435547e+01 -2.041800737380981445e+00 9.312807917594909668e-01
9.488398551940917969e+00 -1.491950130462646484e+01 -2.041800737380981445e+00 9.312808513641357422e-01
9.726919174194335938e+00 -1.476510715484619141e+01 -2.041800737380981445e+00 9.312807917594909668e-01
9.962919235229492188e+00 -1.460690402984619141e+01 -2.041800737380981445e+00 9.312807917594909668e-01
1.042713832855224609e+01 -1.427920913696289062e+01 -2.041800737380981445e+00 9.312808513641357422e-01
1.065523433685302734e+01 -1.410982418060302734e+01 -2.041800737380981445e+00 9.312808513641357422e-01
1.132280254364013672e+01 -1.357995128631591797e+01 -2.041800737380981445e+00 9.312808513641357422e-01
1.153956508636474609e+01 -1.339626884460449219e+01 -2.041800737380981445e+00 9.312807917594909668e-01
1.175333976745605469e+01 -1.320909118652343750e+01 -2.041800737380981445e+00 9.312808513641357422e-01
1.237622070312500000e+01 -1.262735366821289062e+01 -2.041800737380981445e+00 9.312808513641357422e-01
1.334978485107421875e+01 -1.159330081939697266e+01 -2.041800737380981445e+00 9.312807917594909668e-01
1.406752872467041016e+01 -1.107391548156738281e+01 -2.067456483840942383e+00 9.304481148719787598e-01
1.453219223022460938e+01 -1.106616210937500000e+01 -2.109338045120239258e+00 9.290903210639953613e-01
1.501606369018554688e+01 -1.105797863006591797e+01 -2.153498888015747070e+00 9.276608228683471680e-01
1.543295383453369141e+01 -1.098693370819091797e+01 -2.187680959701538086e+00 9.265557527542114258e-01
1.582504844665527344e+01 -1.051659202575683594e+01 -2.194200754165649414e+00 9.263451695442199707e-01
1.646789550781250000e+01 -9.478359222412109375e+00 -2.194200754165649414e+00 9.263451695442199707e-01
1.661808013916015625e+01 -9.212519645690917969e+00 -2.194200754165649414e+00 9.263451695442199707e-01
1.690552711486816406e+01 -8.673759460449218750e+00 -2.194200754165649414e+00 9.263451695442199707e-01
1.717551803588867188e+01 -8.126025199890136719e+00 -2.194200754165649414e+00 9.263452291488647461e-01
1.730387115478515625e+01 -7.848993778228759766e+00 -2.194200754165649414e+00 9.263452291488647461e-01
1.754715728759765625e+01 -7.288925647735595703e+00 -2.194200754165649414e+00 9.263451695442199707e-01
1.766201210021972656e+01 -7.006015300750732422e+00 -2.194200754165649414e+00 9.263451695442199707e-01
1.787801742553710938e+01 -6.434853553771972656e+00 -2.194200754165649414e+00 9.263451695442199707e-01
1.797910690307617188e+01 -6.146738052368164062e+00 -2.194200754165649414e+00 9.263452291488647461e-01
1.825442886352539062e+01 -5.273193359375000000e+00 -2.194200754165649414e+00 9.263451695442199707e-01
1.833680534362792969e+01 -4.979179382324218750e+00 -2.194200754165649414e+00 9.263452291488647461e-01
1.855544471740722656e+01 -4.089755535125732422e+00 -2.194200754165649414e+00 9.263452291488647461e-01
1.873097610473632812e+01 -3.190820217132568359e+00 -2.194200754165649414e+00 9.263451695442199707e-01
1.877983283996582031e+01 -2.889414072036743164e+00 -2.194200754165649414e+00 9.263451695442199707e-01
1.889724540710449219e+01 -1.981054663658142090e+00 -2.194200754165649414e+00 9.263452291488647461e-01
1.892664527893066406e+01 -1.677158117294311523e+00 -2.194200754165649414e+00 9.263451695442199707e-01
1.897076606750488281e+01 -1.068105459213256836e+00 -2.194200754165649414e+00 9.263451695442199707e-01
1.898548316955566406e+01 -7.631250023841857910e-01 -2.194200754165649414e+00 9.263451695442199707e-01
1.900020027160644531e+01 1.526757776737213135e-01 -2.194200754165649414e+00 9.263451695442199707e-01
1.895115280151367188e+01 1.372812509536743164e+00 -2.194200754165649414e+00 9.263451695442199707e-01
1.892664909362792969e+01 1.677148342132568359e+00 -2.194200754165649414e+00 9.263451695442199707e-01
1.889726448059082031e+01 1.981074213981628418e+00 -2.194200754165649414e+00 9.263451695442199707e-01
1.886298370361328125e+01 2.284482479095458984e+00 -2.194200754165649414e+00 9.263451695442199707e-01
1.882383728027343750e+01 2.587294816970825195e+00 -2.194200754165649414e+00 9.263451695442199707e-01
1.877982902526855469e+01 2.889423847198486328e+00 -2.194200754165649414e+00 9.263451695442199707e-01
1.873098564147949219e+01 3.190829992294311523e+00 -2.194200754165649414e+00 9.263451695442199707e-01
1.861877441406250000e+01 3.791074037551879883e+00 -2.194200754165649414e+00 9.263451695442199707e-01
1.848734283447265625e+01 4.387402057647705078e+00 -2.194200754165649414e+00 9.263451695442199707e-01
1.833680152893066406e+01 4.979208946228027344e+00 -2.194200754165649414e+00 9.263451695442199707e-01
1.797911071777343750e+01 6.146748065948486328e+00 -2.194200754165649414e+00 9.263451695442199707e-01
1.766201210021972656e+01 7.006005764007568359e+00 -2.194200754165649414e+00 9.263451695442199707e-01
1.740586471557617188e+01 7.560429573059082031e+00 -2.191443681716918945e+00 9.264342188835144043e-01
1.724701118469238281e+01 7.823212623596191406e+00 -2.186989784240722656e+00 9.265781044960021973e-01
1.573134231567382812e+01 8.071318626403808594e+00 -2.041800737380981445e+00 9.312807917594909668e-01
1.559961414337158203e+01 8.323056221008300781e+00 -2.041800737380981445e+00 9.312808513641357422e-01
1.532410621643066406e+01 8.820029258728027344e+00 -2.041800737380981445e+00 9.312808513641357422e-01
1.503277301788330078e+01 9.307900428771972656e+00 -2.041800737380981445e+00 9.312808513641357422e-01
1.488125896453857422e+01 9.548252105712890625e+00 -2.041800737380981445e+00 9.312808513641357422e-01
1.456676197052001953e+01 1.002151298522949219e+01 -2.041800737380981445e+00 9.312808513641357422e-01
1.406690406799316406e+01 1.071182632446289062e+01 -2.041800737380981445e+00 9.312808513641357422e-01
1.234872055053710938e+01 9.720859527587890625e+00 -1.814848780632019043e+00 9.386797547340393066e-01
1.371542930603027344e+01 1.115832042694091797e+01 -2.041800737380981445e+00 9.312808513641357422e-01
1.028578567504882812e+01 9.226503372192382812e+00 -1.595646023750305176e+00 9.458817839622497559e-01
9.881338119506835938e+00 9.154472351074218750e+00 -1.555524826049804688e+00 9.472059607505798340e-01
9.037954330444335938e+00 8.929677963256835938e+00 -1.467195391654968262e+00 9.501277804374694824e-01
1.196407699584960938e+01 1.301851558685302734e+01 -2.041800737380981445e+00 9.312808513641357422e-01
1.175333976745605469e+01 1.320910167694091797e+01 -2.041800737380981445e+00 9.312807917594909668e-01
1.153956031799316406e+01 1.339624023437500000e+01 -2.041800737380981445e+00 9.312809109687805176e-01
1.132281208038330078e+01 1.357995128631591797e+01 -2.041800737380981445e+00 9.312808513641357422e-01
7.415131568908691406e+00 9.189589500427246094e+00 -1.363599419593811035e+00 9.535660743713378906e-01
7.147695064544677734e+00 9.155370712280273438e+00 -1.341303348541259766e+00 9.543076753616333008e-01
7.092294692993164062e+00 9.391718864440917969e+00 -1.359055638313293457e+00 9.537171721458435059e-01
1.043202590942382812e+01 1.428590774536132812e+01 -2.042757749557495117e+00 9.312497377395629883e-01
9.973803520202636719e+00 1.462285137176513672e+01 -2.044031381607055664e+00 9.312084317207336426e-01
9.024398803710937500e+00 1.525100517272949219e+01 -2.046405792236328125e+00 9.311313033103942871e-01
8.780551910400390625e+00 1.539823246002197266e+01 -2.046962499618530273e+00 9.311132431030273438e-01
8.285531997680664062e+00 1.568060493469238281e+01 -2.048029899597167969e+00 9.310786128044128418e-01
8.034453392028808594e+00 1.581556606292724609e+01 -2.048531532287597656e+00 9.310624003410339355e-01
7.525659084320068359e+00 1.607320213317871094e+01 -2.049501180648803711e+00 9.310308694839477539e-01
7.268032073974609375e+00 1.619571304321289062e+01 -2.049963474273681641e+00 9.310158491134643555e-01
5.139526367187500000e+00 1.701961898803710938e+01 -2.053072690963745117e+00 9.309148788452148438e-01
4.866127967834472656e+00 1.710260772705078125e+01 -2.053385972976684570e+00 9.309047460556030273e-01
4.591342449188232422e+00 1.718106460571289062e+01 -2.053682088851928711e+00 9.308951497077941895e-01
4.315253734588623047e+00 1.725498962402343750e+01 -2.053961038589477539e+00 9.308860301971435547e-01
3.759492158889770508e+00 1.738902282714843750e+01 -2.054466724395751953e+00 9.308696389198303223e-01
3.479970693588256836e+00 1.744910049438476562e+01 -2.054693460464477539e+00 9.308623075485229492e-01
3.199453115463256836e+00 1.750456047058105469e+01 -2.054902791976928711e+00 9.308554530143737793e-01
2.918032169342041016e+00 1.755534172058105469e+01 -2.055094480514526367e+00 9.308492541313171387e-01
2.635776281356811523e+00 1.760140609741210938e+01 -2.055261850357055664e+00 9.308438301086425781e-01
1.784853458404541016e+00 1.771141624450683594e+01 -2.055661678314208984e+00 9.308308362960815430e-01
1.500097632408142090e+00 1.773868179321289062e+01 -2.055764436721801758e+00 9.308275580406188965e-01
1.214912056922912598e+00 1.776124000549316406e+01 -2.055849313735961914e+00 9.308248162269592285e-01
6.435888409614562988e-01 1.779210853576660156e+01 -2.055965662002563477e+00 9.308210611343383789e-01
3.576074242591857910e-01 1.780042839050292969e+01 -2.055997133255004883e+00 9.308199882507324219e-01
-5.006005764007568359e-01 1.779671859741210938e+01 -2.055966854095458984e+00 9.308210015296936035e-01
-1.072158217430114746e+00 1.777055549621582031e+01 -2.055863857269287109e+00 9.308243393898010254e-01
-2.210976600646972656e+00 1.766146469116210938e+01 -2.055453300476074219e+00 9.308376312255859375e-01
-2.494321346282958984e+00 1.762238311767578125e+01 -2.055306196212768555e+00 9.308424592018127441e-01
-3.058784008026123047e+00 1.753018569946289062e+01 -2.054959297180175781e+00 9.308536648750305176e-01
-3.619745969772338867e+00 1.741914939880371094e+01 -2.054524183273315430e+00 9.308677911758422852e-01
-4.176620960235595703e+00 1.728974533081054688e+01 -2.054038047790527344e+00 9.308835864067077637e-01
-5.816359519958496094e+00 1.679206085205078125e+01 -2.052168130874633789e+00 9.309443235397338867e-01
-6.084333419799804688e+00 1.669342803955078125e+01 -2.051797628402709961e+00 9.309563040733337402e-01
-6.350593090057373047e+00 1.659037971496582031e+01 -2.051410436630249023e+00 9.309688210487365723e-01
-6.615063190460205078e+00 1.648292922973632812e+01 -2.051006793975830078e+00 9.309819936752319336e-01
-6.877655982971191406e+00 1.637117195129394531e+01 -2.050586700439453125e+00 9.309955835342407227e-01
-7.396960258483886719e+00 1.613471603393554688e+01 -2.049698352813720703e+00 9.310244321823120117e-01
-7.653522968292236328e+00 1.601010704040527344e+01 -2.049230098724365234e+00 9.310396909713745117e-01
-7.907934188842773438e+00 1.588130855560302734e+01 -2.048746109008789062e+00 9.310553669929504395e-01
-8.160119056701660156e+00 1.574834918975830078e+01 -2.048246622085571289e+00 9.310715794563293457e-01
-8.657536506652832031e+00 1.547009754180908203e+01 -2.047201156616210938e+00 9.311054944992065430e-01
-8.500890731811523438e+00 1.313253879547119141e+01 -1.806536078453063965e+00 9.389518499374389648e-01
-8.768305778503417969e+00 1.308001899719238281e+01 -1.818461298942565918e+00 9.385614991188049316e-01
-8.243703842163085938e+00 1.073599624633789062e+01 -1.563114643096923828e+00 9.469553232192993164e-01
-8.773227691650390625e+00 1.105325126647949219e+01 -1.629625320434570312e+00 9.447617530822753906e-01
-1.185909175872802734e+01 1.311422824859619141e+01 -2.041800737380981445e+00 9.312808513641357422e-01
-1.206828308105468750e+01 1.292198181152343750e+01 -2.041800737380981445e+00 9.312808513641357422e-01
-1.227435970306396484e+01 1.272640609741210938e+01 -2.041800737380981445e+00 9.312807917594909668e-01
-1.247727966308593750e+01 1.252750968933105469e+01 -2.041800737380981445e+00 9.312808513641357422e-01
-1.267696762084960938e+01 1.232540035247802734e+01 -2.041800737380981445e+00 9.312808513641357422e-01
-1.325619888305664062e+01 1.170016574859619141e+01 -2.041800737380981445e+00 9.312809109687805176e-01
-1.362532711029052734e+01 1.126816368103027344e+01 -2.041800737380981445e+00 9.312808513641357422e-01
-1.380463314056396484e+01 1.104775333404541016e+01 -2.041800737380981445e+00 9.312808513641357422e-01
-1.415250682830810547e+01 1.059847640991210938e+01 -2.041800737380981445e+00 9.312808513641357422e-01
-1.432097911834716797e+01 1.036969661712646484e+01 -2.041800737380981445e+00 9.312808513641357422e-01
-1.448575687408447266e+01 1.013823223114013672e+01 -2.041800737380981445e+00 9.312808513641357422e-01
-1.464679908752441406e+01 9.904150009155273438e+00 -2.041800737380981445e+00 9.312808513641357422e-01
-1.495748233795166016e+01 9.428388595581054688e+00 -2.041800737380981445e+00 9.312808513641357422e-01
-1.525272655487060547e+01 8.942880630493164062e+00 -2.041800737380981445e+00 9.312808513641357422e-01
-1.539446544647216797e+01 8.696630477905273438e+00 -2.041800737380981445e+00 9.312808513641357422e-01
-1.553222179412841797e+01 8.448134422302246094e+00 -2.041800737380981445e+00 9.312808513641357422e-01
-1.566597175598144531e+01 8.197461128234863281e+00 -2.041800737380981445e+00 9.312808513641357422e-01
-1.579569339752197266e+01 7.944667816162109375e+00 -2.041800737380981445e+00 9.312807917594909668e-01
-1.628501892089843750e+01 7.865488052368164062e+00 -2.088446855545043945e+00 9.297674298286437988e-01
-1.748393249511718750e+01 7.427948951721191406e+00 -2.193688869476318359e+00 9.263617396354675293e-01
-1.760514450073242188e+01 7.147705078125000000e+00 -2.194200754165649414e+00 9.263451695442199707e-01
-1.771772003173828125e+01 6.863896369934082031e+00 -2.194200754165649414e+00 9.263452291488647461e-01
-1.837621116638183594e+01 4.831718444824218750e+00 -2.194200754165649414e+00 9.263452291488647461e-01
-1.852198600769042969e+01 4.238710880279541016e+00 -2.194200754165649414e+00 9.263452291488647461e-01
-1.858770561218261719e+01 3.940546751022338867e+00 -2.194200754165649414e+00 9.263452291488647461e-01
-1.864862442016601562e+01 3.641357421875000000e+00 -2.194200754165649414e+00 9.263452291488647461e-01
-1.875600814819335938e+01 3.040224552154541016e+00 -2.194200754165649414e+00 9.263451695442199707e-01
-1.880243301391601562e+01 2.738456964492797852e+00 -2.194200754165649414e+00 9.263452291488647461e-01
-1.884400749206542969e+01 2.435956954956054688e+00 -2.194200754165649414e+00 9.263452291488647461e-01
-1.888072395324707031e+01 2.132851600646972656e+00 -2.194200754165649414e+00 9.263451695442199707e-01
-1.897873687744140625e+01 9.156445264816284180e-01 -2.194200754165649414e+00 9.263451695442199707e-01
-1.899098777770996094e+01 6.105663776397705078e-01 -2.194200754165649414e+00 9.263452291488647461e-01
-1.899834823608398438e+01 3.053320348262786865e-01 -2.194200754165649414e+00 9.263452291488647461e-01
-1.731262207031250000e+01 -2.782324254512786865e-01 -2.194200754165649414e+00 9.325678944587707520e-01
-1.729474639892578125e+01 -8.343945145606994629e-01 -2.194200754165649414e+00 9.325678944587707520e-01
-1.720543098449707031e+01 -1.943583965301513672e+00 -2.194200754165649414e+00 9.325678944587707520e-01
-1.717198181152343750e+01 -2.219804525375366211e+00 -2.194200754165649414e+00 9.325678944587707520e-01
-1.699392700195312500e+01 -3.318242073059082031e+00 -2.194200754165649414e+00 9.325678944587707520e-01
-1.693841361999511719e+01 -3.590898275375366211e+00 -2.194200754165649414e+00 9.325678944587707520e-01
-1.659556198120117188e+01 -4.938808441162109375e+00 -2.194200754165649414e+00 9.325678348541259766e-01
-1.642828750610351562e+01 -5.469531059265136719e+00 -2.194200754165649414e+00 9.325678944587707520e-01
-1.521050739288330078e+01 -8.273134231567382812e+00 -2.194200754165649414e+00 9.325678944587707520e-01
-1.493680381774902344e+01 -8.757646560668945312e+00 -2.194200754165649414e+00 9.325678944587707520e-01
-1.479414749145507812e+01 -8.996533393859863281e+00 -2.194200754165649414e+00 9.325678944587707520e-01
-1.464767265319824219e+01 -9.233085632324218750e+00 -2.194200754165649414e+00 9.325678944587707520e-01
-1.449741649627685547e+01 -9.467285156250000000e+00 -2.194200754165649414e+00 9.325678348541259766e-01
-1.418571472167968750e+01 -9.928232192993164062e+00 -2.194200754165649414e+00 9.325678944587707520e-01
-1.385936260223388672e+01 -1.037893486022949219e+01 -2.194200754165649414e+00 9.325678944587707520e-01
-1.369080257415771484e+01 -1.060029315948486328e+01 -2.194200754165649414e+00 9.325678944587707520e-01
-1.176715564727783203e+01 -1.107860374450683594e+01 -2.048070669174194336e+00 9.369138479232788086e-01
-1.118525600433349609e+01 -1.159716796875000000e+01 -2.041800737380981445e+00 9.371008276939392090e-01
-1.099746513366699219e+01 -1.177539062500000000e+01 -2.041800737380981445e+00 9.371008276939392090e-01
-9.812783241271972656e+00 -1.277943325042724609e+01 -2.041800737380981445e+00 9.371007680892944336e-01
-9.606163978576660156e+00 -1.293544864654541016e+01 -2.041800737380981445e+00 9.371008276939392090e-01
-9.397069931030273438e+00 -1.308813476562500000e+01 -2.041800737380981445e+00 9.371008276939392090e-01
-8.755441665649414062e+00 -1.352577114105224609e+01 -2.041800737380981445e+00 9.371008276939392090e-01
-7.641596317291259766e+00 -1.418485355377197266e+01 -2.041800737380981445e+00 9.371008276939392090e-01
-7.181833267211914062e+00 -1.442309570312500000e+01 -2.041800737380981445e+00 9.371008276939392090e-01
-6.949142932891845703e+00 -1.453663063049316406e+01 -2.041800737380981445e+00 9.371008276939392090e-01
-6.714655399322509766e+00 -1.464642524719238281e+01 -2.041800737380981445e+00 9.371008276939392090e-01
-6.001051902770996094e+00 -1.495297813415527344e+01 -2.041800737380981445e+00 9.371008276939392090e-01
-4.284663200378417969e+00 -1.553209972381591797e+01 -2.041800737380981445e+00 9.371008276939392090e-01
-4.034526348114013672e+00 -1.559893512725830078e+01 -2.041800737380981445e+00 9.371008276939392090e-01
-3.783354520797729492e+00 -1.566174793243408203e+01 -2.041800737380981445e+00 9.371008276939392090e-01
-3.531191349029541016e+00 -1.572052669525146484e+01 -2.041800737380981445e+00 9.371008276939392090e-01
-3.278129816055297852e+00 -1.577524375915527344e+01 -2.041800737380981445e+00 9.371008276939392090e-01
-2.769521474838256836e+00 -1.587244129180908203e+01 -2.041800737380981445e+00 9.371007680892944336e-01
-2.514111280441284180e+00 -1.591489219665527344e+01 -2.041800737380981445e+00 9.371007680892944336e-01
-2.258056640625000000e+00 -1.595324230194091797e+01 -2.041800737380981445e+00 9.371007680892944336e-01
-1.744252920150756836e+00 -1.601754760742187500e+01 -2.041800737380981445e+00 9.371008276939392090e-01
-1.228652358055114746e+00 -1.606533241271972656e+01 -2.041800737380981445e+00 9.371008276939392090e-01
-9.703369140625000000e-01 -1.608299827575683594e+01 -2.041800737380981445e+00 9.371008276939392090e-01
-7.117773294448852539e-01 -1.609651374816894531e+01 -2.041800737380981445e+00 9.371008276939392090e-01
-4.530371129512786865e-01 -1.610586929321289062e+01 -2.041800737380981445e+00 9.371008276939392090e-01
-1.941747963428497314e-01 -1.611107444763183594e+01 -2.041800737380981445e+00 9.371008276939392090e-01
6.473632901906967163e-02 -1.611211967468261719e+01 -2.041800737380981445e+00 9.371007680892944336e-01
3.236279189586639404e-01 -1.610899353027343750e+01 -2.041800737380981445e+00 9.371008276939392090e-01
1.357700109481811523e+00 -1.605494117736816406e+01 -2.041800737380981445e+00 9.371008276939392090e-01
1.615517497062683105e+00 -1.603105354309082031e+01 -2.041800737380981445e+00 9.371007680892944336e-01
1.872910141944885254e+00 -1.600302696228027344e+01 -2.041800737380981445e+00 9.371007680892944336e-01
2.386167049407958984e+00 -1.593458938598632812e+01 -2.041800737380981445e+00 9.371007680892944336e-01
2.641913890838623047e+00 -1.589417934417724609e+01 -2.041800737380981445e+00 9.371007680892944336e-01
2.896977424621582031e+00 -1.584967708587646484e+01 -2.041800737380981445e+00 9.371007680892944336e-01
3.404785156250000000e+00 -1.574839782714843750e+01 -2.041800737380981445e+00 9.371007680892944336e-01
3.657407045364379883e+00 -1.569165039062500000e+01 -2.041800737380981445e+00 9.371008276939392090e-01
4.159746170043945312e+00 -1.556601524353027344e+01 -2.041800737380981445e+00 9.371008276939392090e-01
3.396079063415527344e+00 -1.193594741821289062e+01 -1.572598338127136230e+00 9.511954784393310547e-01
3.542709827423095703e+00 -1.173172855377197266e+01 -1.552993893623352051e+00 9.517890214920043945e-01
4.905038833618164062e+00 -1.534747028350830078e+01 -2.041800737380981445e+00 9.371008276939392090e-01
5.151015281677246094e+00 -1.526667976379394531e+01 -2.041800737380981445e+00 9.371008276939392090e-01
5.395673751831054688e+00 -1.518195247650146484e+01 -2.041800737380981445e+00 9.371007680892944336e-01
5.638930320739746094e+00 -1.509328079223632812e+01 -2.041800737380981445e+00 9.371007680892944336e-01
5.880727291107177734e+00 -1.500072193145751953e+01 -2.041800737380981445e+00 9.371007680892944336e-01
6.121005535125732422e+00 -1.490428638458251953e+01 -2.041800737380981445e+00 9.371008276939392090e-01
6.832138538360595703e+00 -1.459200191497802734e+01 -2.041800737380981445e+00 9.371007680892944336e-01
7.755331993103027344e+00 -1.412302684783935547e+01 -2.041800737380981445e+00 9.371007680892944336e-01
8.646493911743164062e+00 -1.359568309783935547e+01 -2.041800737380981445e+00 9.371008276939392090e-01
8.863847732543945312e+00 -1.345499992370605469e+01 -2.041800737380981445e+00 9.371007680892944336e-01
9.291621208190917969e+00 -1.316321277618408203e+01 -2.041800737380981445e+00 9.371008276939392090e-01
9.501933097839355469e+00 -1.301220703125000000e+01 -2.041800737380981445e+00 9.371008276939392090e-01
9.611142158508300781e+00 -1.231077098846435547e+01 -1.979196429252624512e+00 9.389692544937133789e-01
1.011794853210449219e+01 -1.253920841217041016e+01 -2.041800737380981445e+00 9.371007680892944336e-01
1.031813907623291016e+01 -1.237500000000000000e+01 -2.041800737380981445e+00 9.371007680892944336e-01
1.071046352386474609e+01 -1.203705024719238281e+01 -2.041800737380981445e+00 9.371007680892944336e-01
1.146153736114501953e+01 -1.132421875000000000e+01 -2.041800737380981445e+00 9.371007680892944336e-01
1.195365238189697266e+01 -1.107436466217041016e+01 -2.064976930618286133e+00 9.364100694656372070e-01
1.340025329589843750e+01 -1.090190410614013672e+01 -2.189121961593627930e+00 9.327185750007629395e-01
1.359474563598632812e+01 -1.070173835754394531e+01 -2.192514657974243164e+00 9.326178431510925293e-01
1.410549736022949219e+01 -1.004189395904541016e+01 -2.194200754165649414e+00 9.325678348541259766e-01
1.442089366912841797e+01 -9.583447456359863281e+00 -2.194200754165649414e+00 9.325678348541259766e-01
1.457302665710449219e+01 -9.350487709045410156e+00 -2.194200754165649414e+00 9.325678348541259766e-01
1.472139167785644531e+01 -9.115107536315917969e+00 -2.194200754165649414e+00 9.325678348541259766e-01
1.486596679687500000e+01 -8.877372741699218750e+00 -2.194200754165649414e+00 9.325678348541259766e-01
1.514354991912841797e+01 -8.395097732543945312e+00 -2.194200754165649414e+00 9.325678348541259766e-01
1.527649402618408203e+01 -8.150673866271972656e+00 -2.194200754165649414e+00 9.325678348541259766e-01
1.540549278259277344e+01 -7.904150009155273438e+00 -2.194200754165649414e+00 9.325678348541259766e-01
1.565152835845947266e+01 -7.405009746551513672e+00 -2.194200754165649414e+00 9.325678348541259766e-01
1.599019527435302734e+01 -6.642187118530273438e+00 -2.194200754165649414e+00 9.325678348541259766e-01
1.629169845581054688e+01 -5.863886356353759766e+00 -2.194200754165649414e+00 9.325678348541259766e-01
1.638381767272949219e+01 -5.601347446441650391e+00 -2.194200754165649414e+00 9.325678348541259766e-01
1.647171401977539062e+01 -5.337353229522705078e+00 -2.194200754165649414e+00 9.325678348541259766e-01
1.655535697937011719e+01 -5.071972370147705078e+00 -2.194200754165649414e+00 9.325678348541259766e-01
1.663471603393554688e+01 -4.805302619934082031e+00 -2.194200754165649414e+00 9.325678348541259766e-01
1.684695243835449219e+01 -3.998095512390136719e+00 -2.194200754165649414e+00 9.325678348541259766e-01
1.690901756286621094e+01 -3.726874828338623047e+00 -2.194200754165649414e+00 9.325678944587707520e-01
1.696672821044921875e+01 -3.454677581787109375e+00 -2.194200754165649414e+00 9.325678348541259766e-01
1.711348533630371094e+01 -2.633037090301513672e+00 -2.194200754165649414e+00 9.325678944587707520e-01
1.718926239013671875e+01 -2.081767559051513672e+00 -2.194200754165649414e+00 9.325678348541259766e-01
1.722049331665039062e+01 -1.805283188819885254e+00 -2.194200754165649414e+00 9.325678944587707520e-01
1.728748512268066406e+01 -9.733397960662841797e-01 -2.194200754165649414e+00 9.325678348541259766e-01
1.730983352661132812e+01 -4.173242151737213135e-01 -2.194200754165649414e+00 9.325678348541259766e-01
1.730983924865722656e+01 4.173339605331420898e-01 -2.194200754165649414e+00 9.325678348541259766e-01
1.730089759826660156e+01 6.954199075698852539e-01 -2.194200754165649414e+00 9.325678348541259766e-01
1.728747940063476562e+01 9.733300805091857910e-01 -2.194200754165649414e+00 9.325678944587707520e-01
1.722049713134765625e+01 1.805292963981628418e+00 -2.194200754165649414e+00 9.325678348541259766e-01
1.718926239013671875e+01 2.081767559051513672e+00 -2.194200754165649414e+00 9.325678348541259766e-01
1.711350059509277344e+01 2.633046865463256836e+00 -2.194200754165649414e+00 9.325678348541259766e-01
1.706897354125976562e+01 2.907705068588256836e+00 -2.194200754165649414e+00 9.325678348541259766e-01
1.702004814147949219e+01 3.181611299514770508e+00 -2.194200754165649414e+00 9.325678348541259766e-01
1.678052711486816406e+01 4.268310546875000000e+00 -2.194200754165649414e+00 9.325678348541259766e-01
1.670978927612304688e+01 4.537392616271972656e+00 -2.194200754165649414e+00 9.325678348541259766e-01
1.655534553527832031e+01 5.071991920471191406e+00 -2.194200754165649414e+00 9.325678348541259766e-01
1.647170829772949219e+01 5.337363243103027344e+00 -2.194200754165649414e+00 9.325678348541259766e-01
1.629170417785644531e+01 5.863905906677246094e+00 -2.194200754165649414e+00 9.325678348541259766e-01
1.619537544250488281e+01 6.124921798706054688e+00 -2.194200754165649414e+00 9.325678348541259766e-01
1.609486198425292969e+01 6.384365081787109375e+00 -2.194200754165649414e+00 9.325678348541259766e-01
1.588139152526855469e+01 6.898252010345458984e+00 -2.194200754165649414e+00 9.325678944587707520e-01
1.576850032806396484e+01 7.152538776397705078e+00 -2.194200754165649414e+00 9.325678944587707520e-01
1.565070724487304688e+01 7.404628753662109375e+00 -2.194084405899047852e+00 9.325712919235229492e-01
1.550131320953369141e+01 7.641161918640136719e+00 -2.190075159072875977e+00 9.326903223991394043e-01
1.473246097564697266e+01 7.860390663146972656e+00 -2.116059303283691406e+00 9.348893165588378906e-01
1.396439456939697266e+01 8.037421226501464844e+00 -2.041800737380981445e+00 9.371008276939392090e-01
1.383343696594238281e+01 8.260781288146972656e+00 -2.041800737380981445e+00 9.371008276939392090e-01
1.341927719116210938e+01 8.917802810668945312e+00 -2.041800737380981445e+00 9.371008276939392090e-01
1.327425289154052734e+01 9.132294654846191406e+00 -2.041800737380981445e+00 9.371007680892944336e-01
1.312579536437988281e+01 9.344413757324218750e+00 -2.041800737380981445e+00 9.371007680892944336e-01
1.297394466400146484e+01 9.554111480712890625e+00 -2.041800737380981445e+00 9.371008276939392090e-01
1.281874465942382812e+01 9.761366844177246094e+00 -2.041800737380981445e+00 9.371008276939392090e-01
1.234872055053710938e+01 9.720859527587890625e+00 -1.991560220718383789e+00 9.385999441146850586e-01
1.249845695495605469e+01 1.016823196411132812e+01 -2.041800737380981445e+00 9.371008276939392090e-01
1.181949710845947266e+01 1.095005798339843750e+01 -2.041800737380981445e+00 9.371008276939392090e-01
1.014866638183593750e+01 9.709794998168945312e+00 -1.779892802238464355e+00 9.449424743652343750e-01
9.037954330444335938e+00 8.929677963256835938e+00 -1.610055804252624512e+00 9.500625133514404297e-01
7.481454849243164062e+00 9.271786689758300781e+00 -1.509759545326232910e+00 9.530992507934570312e-01
7.079799652099609375e+00 9.375156402587890625e+00 -1.488757014274597168e+00 9.537362456321716309e-01
9.291621208190917969e+00 1.316321277618408203e+01 -2.041800737380981445e+00 9.371008276939392090e-01
8.646493911743164062e+00 1.359568309783935547e+01 -2.041800737380981445e+00 9.371008276939392090e-01
8.205151557922363281e+00 1.386651325225830078e+01 -2.041800737380981445e+00 9.371007680892944336e-01
7.981278896331787109e+00 1.399656200408935547e+01 -2.041800737380981445e+00 9.371007680892944336e-01
7.302104473114013672e+00 1.437398433685302734e+01 -2.043088674545288086e+00 9.370623826980590820e-01
3.612187385559082031e+00 8.408369064331054688e+00 -1.159701228141784668e+00 9.637740254402160645e-01
6.131147384643554688e+00 1.492898368835449219e+01 -2.045182943344116211e+00 9.369999170303344727e-01
5.891552448272705078e+00 1.502832984924316406e+01 -2.045557975769042969e+00 9.369887709617614746e-01
5.650297641754150391e+00 1.512371063232421875e+01 -2.045917987823486328e+00 9.369780421257019043e-01
4.171884536743164062e+00 1.561144542694091797e+01 -2.047758579254150391e+00 9.369231462478637695e-01
3.920976400375366211e+00 1.567838859558105469e+01 -2.048011064529418945e+00 9.369156956672668457e-01
3.668964862823486328e+00 1.574120044708251953e+01 -2.048248291015625000e+00 9.369086027145385742e-01
3.161904335021972656e+00 1.585426712036132812e+01 -2.048674821853637695e+00 9.368958473205566406e-01
2.907001972198486328e+00 1.590450191497802734e+01 -2.048864364624023438e+00 9.368902444839477539e-01
2.651284217834472656e+00 1.595050716400146484e+01 -2.049037933349609375e+00 9.368850588798522949e-01
2.394804716110229492e+00 1.599218750000000000e+01 -2.049184083938598633e+00 9.368807077407836914e-01
2.137665987014770508e+00 1.602971649169921875e+01 -2.049325227737426758e+00 9.368764758110046387e-01
8.443945050239562988e-01 1.615323257446289062e+01 -2.049790620803833008e+00 9.368626475334167480e-01
-1.949414014816284180e-01 1.617474555969238281e+01 -2.049871683120727539e+00 9.368602633476257324e-01
-4.548144340515136719e-01 1.616929626464843750e+01 -2.049842596054077148e+00 9.368610978126525879e-01
-1.233393549919128418e+00 1.612734413146972656e+01 -2.049681425094604492e+00 9.368658661842346191e-01
-2.523100614547729492e+00 1.597173786163330078e+01 -2.049096107482910156e+00 9.368833899497985840e-01
-3.288964748382568359e+00 1.582738208770751953e+01 -2.048548936843872070e+00 9.368996024131774902e-01
-3.542485237121582031e+00 1.577080059051513672e+01 -2.048331022262573242e+00 9.369061589241027832e-01
-3.795029163360595703e+00 1.571010684967041016e+01 -2.048103094100952148e+00 9.369128942489624023e-01
-4.046504020690917969e+00 1.564523410797119141e+01 -2.047859191894531250e+00 9.369201660156250000e-01
-4.296831130981445312e+00 1.557622051239013672e+01 -2.047599792480468750e+00 9.369279146194458008e-01
-4.793808460235595703e+00 1.542584896087646484e+01 -2.047034978866577148e+00 9.369447231292724609e-01
-5.040312290191650391e+00 1.534452152252197266e+01 -2.046729326248168945e+00 9.369539022445678711e-01
-5.285392761230468750e+00 1.525916004180908203e+01 -2.046408891677856445e+00 9.369634389877319336e-01
-5.529001235961914062e+00 1.516977500915527344e+01 -2.046072959899902344e+00 9.369734525680541992e-01
-5.771054744720458984e+00 1.507638645172119141e+01 -2.045722007751464844e+00 9.369838833808898926e-01
-6.011496543884277344e+00 1.497903251647949219e+01 -2.045356273651123047e+00 9.369947910308837891e-01
-6.487260818481445312e+00 1.477251911163330078e+01 -2.044580221176147461e+00 9.370179176330566406e-01
-6.722451210021972656e+00 1.466341781616210938e+01 -2.044170379638671875e+00 9.370301961898803711e-01
-7.416493892669677734e+00 1.431321239471435547e+01 -2.042854547500610352e+00 9.370694160461425781e-01
-7.643784046173095703e+00 1.418894481658935547e+01 -2.042387723922729492e+00 9.370833039283752441e-01
-7.868949890136718750e+00 1.406097602844238281e+01 -2.041906833648681641e+00 9.370976686477661133e-01
-8.093461990356445312e+00 1.393200206756591797e+01 -2.041800737380981445e+00 9.371007680892944336e-01
-8.500890731811523438e+00 1.313254833221435547e+01 -1.982439398765563965e+00 9.388723969459533691e-01
-8.501227378845214844e+00 1.268160152435302734e+01 -1.934740900993347168e+00 9.402983784675598145e-01
-8.477116584777832031e+00 1.180684566497802734e+01 -1.841912627220153809e+00 9.430796504020690918e-01
-8.223847389221191406e+00 1.071012687683105469e+01 -1.711183547973632812e+00 9.470105171203613281e-01
-8.397218704223632812e+00 1.057952117919921875e+01 -1.711657404899597168e+00 9.469962120056152344e-01
-8.372053146362304688e+00 9.878515243530273438e+00 -1.640942096710205078e+00 9.491293430328369141e-01
-1.061340045928955078e+01 1.212270450592041016e+01 -2.041800737380981445e+00 9.371008276939392090e-01
