9.084345817565917969e+00 9.268671989440917969e+00 -3.416432142257690430e-01 9.493945837020874023e-01
4.677613067626953125e+01 5.089870834350585938e+01 -1.819754004478454590e+00 7.583517432212829590e-01
4.385832977294921875e+01 5.091503906250000000e+01 -1.769009351730346680e+00 7.642236948013305664e-01
4.245889663696289062e+01 5.092285156250000000e+01 -1.745347261428833008e+00 7.669773101806640625e-01
4.109607315063476562e+01 5.093048858642578125e+01 -1.722749590873718262e+00 7.696163058280944824e-01
3.972759628295898438e+01 5.260784912109375000e+01 -1.735388755798339844e+00 7.681393027305603027e-01
3.973773193359375000e+01 5.441794967651367188e+01 -1.773804306983947754e+00 7.636670470237731934e-01
3.975940322875976562e+01 5.829228210449218750e+01 -1.857463955879211426e+00 7.540170550346374512e-01
3.977102279663085938e+01 6.037095642089843750e+01 -1.903091430664062500e+00 7.488061189651489258e-01
3.979610443115234375e+01 6.485351562500000000e+01 -2.003025531768798828e+00 7.375171184539794922e-01
3.467258071899414062e+01 6.080448913574218750e+01 -1.842588424682617188e+00 7.557239532470703125e-01
3.339331817626953125e+01 6.081163787841796875e+01 -1.826306700706481934e+00 7.575966715812683105e-01
3.213616180419921875e+01 6.081867218017578125e+01 -1.810776948928833008e+00 7.593874931335449219e-01
1.724323272705078125e+01 3.533789062500000000e+01 -1.035085678100585938e+00 8.544167876243591309e-01
1.208254814147949219e+01 2.580577087402343750e+01 -7.500954866409301758e-01 8.922430276870727539e-01
2.054224967956542969e+01 6.088351440429687500e+01 -1.691489815711975098e+00 7.732819318771362305e-01
1.732801246643066406e+01 6.090150070190429688e+01 -1.666826725006103516e+00 7.761865258216857910e-01
1.627642059326171875e+01 6.090738296508789062e+01 -1.659614801406860352e+00 7.770379781723022461e-01
1.523362255096435547e+01 6.091320037841796875e+01 -1.652891159057617188e+00 7.778327465057373047e-01
1.419898891448974609e+01 6.091900253295898438e+01 -1.646641254425048828e+00 7.785717248916625977e-01
1.317186450958251953e+01 6.092474365234375000e+01 -1.640859961509704590e+00 7.792558670043945312e-01
1.215166473388671875e+01 6.093044662475585938e+01 -1.635545015335083008e+00 7.798859477043151855e-01
1.012968254089355469e+01 6.094175720214843750e+01 -1.626265168190002441e+00 7.809866666793823242e-01
8.128457069396972656e+00 6.095294952392578125e+01 -1.618755459785461426e+00 7.818788886070251465e-01
6.143608093261718750e+00 6.096406173706054688e+01 -1.612971782684326172e+00 7.825666069984436035e-01
5.155986309051513672e+00 6.096958923339843750e+01 -1.610715866088867188e+00 7.828347682952880859e-01
4.170839786529541016e+00 6.097509765625000000e+01 -1.608884811401367188e+00 7.830528616905212402e-01
-1.716059565544128418e+00 6.100802612304687500e+01 -1.606633901596069336e+00 7.833206057548522949e-01
-5.655263423919677734e+00 6.103005599975585938e+01 -1.613462448120117188e+00 7.825080752372741699e-01
-1.125553894042968750e+01 8.991003417968750000e+01 -2.385300874710083008e+00 6.958836317062377930e-01
-1.269883728027343750e+01 8.971757507324218750e+01 -2.385300874710083008e+00 6.958835721015930176e-01
-1.557522869110107422e+01 8.926319885253906250e+01 -2.385300874710083008e+00 6.958835124969482422e-01
-1.843554878234863281e+01 8.871658325195312500e+01 -2.385300874710083008e+00 6.958836317062377930e-01
-1.985871315002441406e+01 8.840892028808593750e+01 -2.385300874710083008e+00 6.958835124969482422e-01
-2.268924522399902344e+01 8.772474670410156250e+01 -2.385300874710083008e+00 6.958847045898437500e-01
-2.409603881835937500e+01 8.734919738769531250e+01 -2.385300874710083008e+00 6.958836317062377930e-01
-2.965703964233398438e+01 8.562103271484375000e+01 -2.385300874710083008e+00 6.958836317062377930e-01
-3.102904319763183594e+01 8.513341522216796875e+01 -2.385300874710083008e+00 6.958836317062377930e-01
-3.643337249755859375e+01 8.296454620361328125e+01 -2.385300874710083008e+00 6.958835124969482422e-01
-4.038910675048828125e+01 8.111240386962890625e+01 -2.385300874710083008e+00 6.958836317062377930e-01
-4.168711853027343750e+01 8.045256042480468750e+01 -2.385300874710083008e+00 6.958847641944885254e-01
-4.551569366455078125e+01 7.835017395019531250e+01 -2.385300874710083008e+00 6.958847641944885254e-01
-8.230051040649414062e+00 1.317346668243408203e+01 -4.088964760303497314e-01 9.397386312484741211e-01
-1.699866104125976562e+01 2.626023292541503906e+01 -8.234757781028747559e-01 8.823462128639221191e-01
-1.736184310913085938e+01 2.418140602111816406e+01 -7.836419343948364258e-01 8.877048492431640625e-01
-1.039504814147949219e+01 1.309655284881591797e+01 -4.401600658893585205e-01 9.352837204933166504e-01
-1.073802185058593750e+01 1.309103488922119141e+01 -4.457159340381622314e-01 9.344940781593322754e-01
-9.657616615295410156e+00 1.067975521087646484e+01 -3.790405094623565674e-01 9.440129995346069336e-01
-1.029677486419677734e+01 1.067596626281738281e+01 -3.904487490653991699e-01 9.423767924308776855e-01
-1.098444843292236328e+01 1.067981433868408203e+01 -4.033021330833435059e-01 9.405381679534912109e-01
-1.765416908264160156e+01 1.662114143371582031e+01 -6.382955908775329590e-01 9.075352549552917480e-01
-1.928682899475097656e+01 1.702291870117187500e+01 -6.771876215934753418e-01 9.021860361099243164e-01
-1.992736434936523438e+01 1.702650260925292969e+01 -6.899812221527099609e-01 9.004333019256591797e-01
-2.059274101257324219e+01 1.703022384643554688e+01 -7.034524083137512207e-01 8.985913991928100586e-01
-2.291592979431152344e+01 1.659320259094238281e+01 -7.447907924652099609e-01 8.929632902145385742e-01
-2.436333274841308594e+01 1.705130767822265625e+01 -7.828204035758972168e-01 8.878155946731567383e-01
-2.580301284790039062e+01 1.685019493103027344e+01 -8.112545609474182129e-01 8.839868307113647461e-01
-3.050097084045410156e+01 1.723059463500976562e+01 -9.221566319465637207e-01 8.692066669464111328e-01
-3.479904556274414062e+01 1.750267601013183594e+01 -1.025407433509826660e+00 8.556746840476989746e-01
-3.482567214965820312e+01 1.682041931152343750e+01 -1.018095374107360840e+00 8.566262722015380859e-01
-3.616643142700195312e+01 1.675670814514160156e+01 -1.049283742904663086e+00 8.525749444961547852e-01
-3.756118011474609375e+01 1.667511749267578125e+01 -1.081833720207214355e+00 8.483669757843017578e-01
-3.977919769287109375e+01 1.689994049072265625e+01 -1.137747287750244141e+00 8.411872386932373047e-01
-4.364746475219726562e+01 1.690913963317871094e+01 -1.232200860977172852e+00 8.291964530944824219e-01
-4.585344696044921875e+01 1.692148399353027344e+01 -1.286634087562561035e+00 8.223639726638793945e-01
-6.083491897583007812e+01 2.134588813781738281e+01 -1.697164773941040039e+00 7.726152539253234863e-01
-6.299023437500000000e+01 2.097160148620605469e+01 -1.747665524482727051e+00 7.667071223258972168e-01
-2.664019012451171875e+01 7.464257717132568359e+00 -7.282938957214355469e-01 8.952047228813171387e-01
-2.651709365844726562e+01 6.972207069396972656e+00 -7.217721343040466309e-01 8.960925936698913574e-01
-2.650927352905273438e+01 6.516591548919677734e+00 -7.186158299446105957e-01 8.965225815773010254e-01
-5.597190856933593750e+01 1.092913055419921875e+01 -1.501251935958862305e+00 7.959691882133483887e-01
-7.410441589355468750e+01 1.323720645904541016e+01 -1.981631398200988770e+00 7.399194240570068359e-01
-8.006492614746093750e+01 1.166087818145751953e+01 -2.129906177520751953e+00 7.234306335449218750e-01
-8.428643035888671875e+01 9.521298408508300781e+00 -2.232900857925415039e+00 7.121921181678771973e-01
-8.442855072021484375e+01 8.165683746337890625e+00 -2.232900857925415039e+00 7.121920585632324219e-01
-8.896827697753906250e+01 7.163837909698486328e+00 -2.349615812301635742e+00 6.996684670448303223e-01
-9.042470550537109375e+01 5.820380687713623047e+00 -2.385300874710083008e+00 6.958835721015930176e-01
-9.050653839111328125e+01 4.366601467132568359e+00 -2.385300874710083008e+00 6.958836317062377930e-01
-9.060013580322265625e+01 1.456054687500000000e+00 -2.385300874710083008e+00 6.958835721015930176e-01
-6.374854660034179688e+01 9.765624781721271574e-06 -2.385300874710083008e+00 7.747827172279357910e-01
-6.361689758300781250e+01 -4.094814300537109375e+00 -2.385300874710083008e+00 7.747827172279357910e-01
-6.354288101196289062e+01 -5.116562366485595703e+00 -2.385300874710083008e+00 7.747827172279357910e-01
-6.334565353393554688e+01 -7.155751705169677734e+00 -2.385300874710083008e+00 7.747827768325805664e-01
-6.322249221801757812e+01 -8.172724723815917969e+00 -2.385300874710083008e+00 7.747827172279357910e-01
-6.171818161010742188e+01 -8.988808631896972656e+00 -2.333694458007812500e+00 7.790719270706176758e-01
-5.465318298339843750e+01 -9.762685775756835938e+00 -2.077345609664916992e+00 8.007323145866394043e-01
-4.384814453125000000e+01 -9.295693397521972656e+00 -1.677143692970275879e+00 8.357580900192260742e-01
-4.367930603027343750e+01 -9.995937347412109375e+00 -1.676614046096801758e+00 8.358054757118225098e-01
-4.394063949584960938e+01 -1.080163097381591797e+01 -1.693089127540588379e+00 8.343336582183837891e-01
-5.455955123901367188e+01 -2.113648414611816406e+01 -2.189312219619750977e+00 7.911985516548156738e-01
-5.003555679321289062e+01 -2.125728416442871094e+01 -2.034150600433349609e+00 8.044410347938537598e-01
-4.435367965698242188e+01 -2.142236328125000000e+01 -1.843033432960510254e+00 8.210572600364685059e-01
-4.261162567138671875e+01 -2.143210983276367188e+01 -1.784728169441223145e+00 8.261945843696594238e-01
-4.097590637207031250e+01 -2.144125938415527344e+01 -1.730426549911499023e+00 8.310078382492065430e-01
-3.943644332885742188e+01 -2.144987297058105469e+01 -1.679755210876464844e+00 8.355246782302856445e-01
-3.400141143798828125e+01 -2.143264579772949219e+01 -1.503903508186340332e+00 8.513913750648498535e-01
-3.178452110290527344e+01 -2.149266624450683594e+01 -1.435670733451843262e+00 8.576287627220153809e-01
-3.107219505310058594e+01 -2.174666023254394531e+01 -1.419103622436523438e+00 8.591505885124206543e-01
-2.778769874572753906e+01 -2.151501846313476562e+01 -1.314969301223754883e+00 8.687745332717895508e-01
-2.689017486572265625e+01 -2.152003860473632812e+01 -1.288696527481079102e+00 8.712197542190551758e-01
-2.626875686645507812e+01 -2.172428703308105469e+01 -1.275482296943664551e+00 8.724521398544311523e-01
-2.657106208801269531e+01 -2.345211791992187500e+01 -1.326086282730102539e+00 8.677420020103454590e-01
-2.400585174560546875e+01 -2.188425827026367188e+01 -1.215459585189819336e+00 8.780722618103027344e-01
-2.297575187683105469e+01 -2.163131713867187500e+01 -1.180752038955688477e+00 8.813385367393493652e-01
-2.216111946105957031e+01 -2.154648399353027344e+01 -1.156530618667602539e+00 8.836249709129333496e-01
-2.146396636962890625e+01 -2.155039024353027344e+01 -1.138071060180664062e+00 8.853711485862731934e-01
-1.616888618469238281e+01 -2.177265548706054688e+01 -1.014756917953491211e+00 8.971295952796936035e-01
-1.581861019134521484e+01 -2.203198242187500000e+01 -1.014856338500976562e+00 8.971192836761474609e-01
-1.062550735473632812e+01 -1.531259727478027344e+01 -6.973812580108642578e-01 9.281105995178222656e-01
-1.066643810272216797e+01 -1.591151332855224609e+01 -7.167633175849914551e-01 9.261887073516845703e-01
-1.049069786071777344e+01 -1.679196166992187500e+01 -7.408488392829895020e-01 9.238053560256958008e-01
-9.237631797790527344e+00 -1.532902336120605469e+01 -6.696679592132568359e-01 9.308666586875915527e-01
-8.523273468017578125e+00 -1.523016548156738281e+01 -6.530386209487915039e-01 9.325239062309265137e-01
-9.560002326965332031e+00 -1.774595642089843750e+01 -7.542434334754943848e-01 9.224840402603149414e-01
-1.263341808319091797e+01 -2.438141632080078125e+01 -1.027485013008117676e+00 8.959082961082458496e-01
-8.456862449645996094e+00 -1.769057655334472656e+01 -7.336832880973815918e-01 9.245140552520751953e-01
-1.219582748413085938e+01 -2.660228538513183594e+01 -1.094996929168701172e+00 8.894602060317993164e-01
-1.265825939178466797e+01 -2.882483291625976562e+01 -1.177962183952331543e+00 8.816013932228088379e-01
-1.266565895080566406e+01 -3.014854431152343750e+01 -1.223582506179809570e+00 8.773095011711120605e-01
-1.404118156433105469e+01 -3.668130874633789062e+01 -1.469635844230651855e+00 8.545182347297668457e-01
-1.364674758911132812e+01 -3.744214630126953125e+01 -1.491139769554138184e+00 8.525547385215759277e-01
-1.305593681335449219e+01 -3.769289016723632812e+01 -1.492576599121093750e+00 8.524236679077148438e-01
-1.219494628906250000e+01 -3.712580108642578125e+01 -1.462166070938110352e+00 8.552008271217346191e-01
-1.016481876373291016e+01 -3.930078125000000000e+01 -1.518918633460998535e+00 8.500248193740844727e-01
-8.825229644775390625e+00 -3.653332901000976562e+01 -1.406298756599426270e+00 8.603277802467346191e-01
-7.884274959564208984e+00 -3.794118118286132812e+01 -1.449985742568969727e+00 8.563164472579956055e-01
-5.563801288604736328e+00 -3.930835723876953125e+01 -1.485474467277526855e+00 8.530716300010681152e-01
-4.921328067779541016e+00 -3.931194305419921875e+01 -1.482429742813110352e+00 8.533495068550109863e-01
-2.372685432434082031e+00 -3.932621002197265625e+01 -1.474157214164733887e+00 8.541049957275390625e-01
-1.742167949676513672e+00 -3.939799880981445312e+01 -1.475607991218566895e+00 8.539724349975585938e-01
-1.113945245742797852e+00 -3.960150146484375000e+01 -1.482368469238281250e+00 8.533550500869750977e-01
1.583349555730819702e-01 -3.940838623046875000e+01 -1.474568486213684082e+00 8.540674448013305664e-01
1.988818287849426270e+00 -3.804641342163085938e+01 -1.425539016723632812e+00 8.585588335990905762e-01
2.505683422088623047e+00 -3.663171005249023438e+01 -1.373863816261291504e+00 8.633181452751159668e-01
4.604687213897705078e+00 -3.934468841552734375e+01 -1.482221007347106934e+00 8.533685207366943359e-01
5.247323989868164062e+00 -3.934828186035156250e+01 -1.485341787338256836e+00 8.530837297439575195e-01
7.228940486907958984e+00 -3.955038070678710938e+01 -1.504383921623229980e+00 8.513474464416503906e-01
8.506962776184082031e+00 -3.934786987304687500e+01 -1.506309509277343750e+00 8.511724472045898438e-01
1.100459003448486328e+01 -3.867705154418945312e+01 -1.504627823829650879e+00 8.513252139091491699e-01
3.569477558135986328e+00 -1.182038021087646484e+01 -4.620136916637420654e-01 9.517766833305358887e-01
1.251858329772949219e+01 -3.710283279418945312e+01 -1.465181827545166016e+00 8.549255132675170898e-01
1.308330059051513672e+01 -3.681286239624023438e+01 -1.461844563484191895e+00 8.552307486534118652e-01
1.365838336944580078e+01 -3.655836868286132812e+01 -1.460256338119506836e+00 8.553751111030578613e-01
1.487303161621093750e+01 -3.621496963500976562e+01 -1.464892506599426270e+00 8.549519181251525879e-01
1.556032180786132812e+01 -3.622098541259765625e+01 -1.475061297416687012e+00 8.540224432945251465e-01
1.696481895446777344e+01 -3.623331069946289062e+01 -1.497001171112060547e+00 8.520203232765197754e-01
1.986366081237792969e+01 -3.617316436767578125e+01 -1.544145464897155762e+00 8.477340936660766602e-01
2.146344184875488281e+01 -3.627273178100585938e+01 -1.577037930488586426e+00 8.447564244270324707e-01
2.226234817504882812e+01 -3.627973556518554688e+01 -1.592692255973815918e+00 8.433429598808288574e-01
2.390977478027343750e+01 -3.629417800903320312e+01 -1.626232266426086426e+00 8.403224349021911621e-01
2.556911659240722656e+01 -3.622318267822265625e+01 -1.659027218818664551e+00 8.373794555664062500e-01
2.651986694335937500e+01 -3.631705856323242188e+01 -1.682629466056823730e+00 8.352678418159484863e-01
2.836574172973632812e+01 -3.633324050903320312e+01 -1.724740147590637207e+00 8.315134644508361816e-01
1.081572723388671875e+01 -1.176896476745605469e+01 -5.980787277221679688e-01 9.380230307579040527e-01
1.349125480651855469e+01 -1.290785121917724609e+01 -6.986392140388488770e-01 9.279862046241760254e-01
1.393539524078369141e+01 -1.291033172607421875e+01 -7.108047604560852051e-01 9.267793893814086914e-01
1.416858863830566406e+01 -1.230436515808105469e+01 -7.021569609642028809e-01 9.276370406150817871e-01
4.328001785278320312e+01 -3.638210678100585938e+01 -2.115591049194335938e+00 7.974629402160644531e-01
4.629104232788085938e+01 -3.766049575805664062e+01 -2.232900857925415039e+00 7.875177860260009766e-01
4.747729492187500000e+01 -3.615358352661132812e+01 -2.232900857925415039e+00 7.875177264213562012e-01
5.133174514770507812e+01 -3.780118942260742188e+01 -2.385300874710083008e+00 7.747827172279357910e-01
5.365383529663085938e+01 -3.442591857910156250e+01 -2.385300874710083008e+00 7.747827172279357910e-01
5.525050735473632812e+01 -3.180033111572265625e+01 -2.385300874710083008e+00 7.747826576232910156e-01
5.575436401367187500e+01 -3.090840721130371094e+01 -2.385300874710083008e+00 7.747827172279357910e-01
3.956254959106445312e+01 -2.110832977294921875e+01 -1.677846312522888184e+00 8.356951475143432617e-01
5.671875000000000000e+01 -2.910085868835449219e+01 -2.385300874710083008e+00 7.747827768325805664e-01
5.762460708618164062e+01 -2.726322174072265625e+01 -2.385300874710083008e+00 7.747827172279357910e-01
5.847088623046875000e+01 -2.539747047424316406e+01 -2.385300874710083008e+00 7.747827768325805664e-01
5.887146377563476562e+01 -2.445465850830078125e+01 -2.385300874710083008e+00 7.747826576232910156e-01
5.925682449340820312e+01 -2.350547790527343750e+01 -2.385300874710083008e+00 7.747826576232910156e-01
5.962685394287109375e+01 -2.255027198791503906e+01 -2.385300874710083008e+00 7.747827768325805664e-01
5.998152160644531250e+01 -2.158921813964843750e+01 -2.385300874710083008e+00 7.747827172279357910e-01
6.032069015502929688e+01 -2.062261581420898438e+01 -2.385300874710083008e+00 7.747827172279357910e-01
6.088804626464843750e+01 -1.865399360656738281e+01 -2.382789134979248047e+00 7.749908566474914551e-01
6.062027359008789062e+01 -1.751152229309082031e+01 -2.360992908477783203e+00 7.768000960350036621e-01
5.991854476928710938e+01 -1.627033233642578125e+01 -2.323178291320800781e+00 7.799488306045532227e-01
5.918870925903320312e+01 -1.505525398254394531e+01 -2.285205125808715820e+00 7.831236720085144043e-01
5.844766616821289062e+01 -1.387073230743408203e+01 -2.247696876525878906e+00 7.862722277641296387e-01
5.827683639526367188e+01 -1.284463882446289062e+01 -2.232900857925415039e+00 7.875177860260009766e-01
5.847570037841796875e+01 -1.190656185150146484e+01 -2.232900857925415039e+00 7.875177860260009766e-01
5.898155212402343750e+01 -9.074765205383300781e+00 -2.232900857925415039e+00 7.875177264213562012e-01
5.485063171386718750e+01 -6.642870903015136719e+00 -2.067360401153564453e+00 8.015881180763244629e-01
5.336635589599609375e+01 -5.594589710235595703e+00 -2.007769107818603516e+00 8.067145347595214844e-01
5.251433563232421875e+01 -4.653466701507568359e+00 -1.972647309303283691e+00 8.097513914108276367e-01
5.956226348876953125e+01 -4.314628601074218750e+00 -2.234500646591186523e+00 7.873830199241638184e-01
5.969491195678710938e+01 -3.360956907272338867e+00 -2.237161874771118164e+00 7.871588468551635742e-01
5.981126022338867188e+01 -2.404120922088623047e+00 -2.239784479141235352e+00 7.869380116462707520e-01
5.991117095947265625e+01 -1.444394469261169434e+00 -2.242367506027221680e+00 7.867206335067749023e-01
6.006144332885742188e+01 4.825976490974426270e-01 -2.247411251068115234e+00 7.862962484359741211e-01
5.841251754760742188e+01 9.950556755065917969e+00 -2.217126131057739258e+00 7.888478040695190430e-01
5.922939300537109375e+01 1.405626964569091797e+01 -2.277760028839111328e+00 7.837476134300231934e-01
5.867580795288085938e+01 1.694968795776367188e+01 -2.285260915756225586e+00 7.831190824508666992e-01
5.820065307617187500e+01 1.885886764526367188e+01 -2.289186239242553711e+00 7.827901840209960938e-01
5.793363189697265625e+01 1.980652236938476562e+01 -2.290908098220825195e+00 7.826460003852844238e-01
5.765121841430664062e+01 2.075047874450683594e+01 -2.292631387710571289e+00 7.825017571449279785e-01
5.674243927001953125e+01 2.357021522521972656e+01 -2.299039602279663086e+00 7.819655537605285645e-01
5.642221450805664062e+01 2.450760650634765625e+01 -2.301725149154663086e+00 7.817408442497253418e-01
5.606749725341796875e+01 2.543210792541503906e+01 -2.303630828857421875e+00 7.815815210342407227e-01
5.568971633911132812e+01 2.634779167175292969e+01 -2.305208444595336914e+00 7.814496159553527832e-01
5.531974411010742188e+01 2.726915931701660156e+01 -2.307736873626708984e+00 7.812382578849792480e-01
5.318244171142578125e+01 3.175876808166503906e+01 -2.317752122879028320e+00 7.804011106491088867e-01
5.272716522216796875e+01 3.264738082885742188e+01 -2.320478677749633789e+00 7.801740169525146484e-01
5.175129699707031250e+01 3.439148330688476562e+01 -2.324990034103393555e+00 7.797976732254028320e-01
1.239062023162841797e+01 8.821044921875000000e+00 -5.691111683845520020e-01 9.409344196319580078e-01
1.234872055053710938e+01 9.720869064331054688e+00 -5.880429148674011230e-01 9.390306472778320312e-01
1.081437492370605469e+01 9.700654029846191406e+00 -5.435870289802551270e-01 9.435071349143981934e-01
1.047294902801513672e+01 9.702558517456054688e+00 -5.341939926147460938e-01 9.444556832313537598e-01
9.037954330444335938e+00 8.929677963256835938e+00 -4.753973186016082764e-01 9.504148960113525391e-01
4.123366928100585938e+01 4.786804580688476562e+01 -2.363985061645507812e+00 7.765516042709350586e-01
3.899687576293945312e+01 4.995052719116210938e+01 -2.371152639389038086e+00 7.759562730789184570e-01
3.744638442993164062e+01 5.128015518188476562e+01 -2.375893115997314453e+00 7.755628228187561035e-01
3.246388244628906250e+01 5.486323928833007812e+01 -2.385300874710083008e+00 7.747826576232910156e-01
3.068419456481933594e+01 5.587806701660156250e+01 -2.385300874710083008e+00 7.747827172279357910e-01
2.978229904174804688e+01 5.636394500732421875e+01 -2.385300874710083008e+00 7.747826576232910156e-01
1.794992065429687500e+01 3.533394622802734375e+01 -1.482919931411743164e+00 8.533047437667846680e-01
1.208254337310791016e+01 2.580577087402343750e+01 -1.066181302070617676e+00 8.922070860862731934e-01
3.614052772521972656e+00 8.412714958190917969e+00 -3.425984084606170654e-01 9.640132188796997070e-01
2.421794319152832031e+01 5.896925735473632812e+01 -2.385300874710083008e+00 7.747825980186462402e-01
2.231057167053222656e+01 5.971697235107421875e+01 -2.385300874710083008e+00 7.747827172279357910e-01
2.038013648986816406e+01 6.040302658081054688e+01 -2.385300874710083008e+00 7.747827768325805664e-01
1.744564819335937500e+01 6.131499862670898438e+01 -2.385300874710083008e+00 7.747826576232910156e-01
1.645813941955566406e+01 6.158740234375000000e+01 -2.385300874710083008e+00 7.747827172279357910e-01
1.546639156341552734e+01 6.184388351440429688e+01 -2.385300874710083008e+00 7.747827768325805664e-01
1.447062969207763672e+01 6.208445358276367188e+01 -2.385300874710083008e+00 7.747827172279357910e-01
1.246816349029541016e+01 6.251737976074218750e+01 -2.385300874710083008e+00 7.747827172279357910e-01
1.045280742645263672e+01 6.288576126098632812e+01 -2.385300874710083008e+00 7.747826576232910156e-01
9.440966606140136719e+00 6.304558563232421875e+01 -2.385300874710083008e+00 7.747827172279357910e-01
8.426665306091308594e+00 6.318914031982421875e+01 -2.385300874710083008e+00 7.747827768325805664e-01
6.391821384429931641e+00 6.342728424072265625e+01 -2.385300874710083008e+00 7.747827768325805664e-01
1.280439376831054688e+00 6.373570251464843750e+01 -2.385300874710083008e+00 7.747826576232910156e-01
2.561279237270355225e-01 6.374804687500000000e+01 -2.385300874710083008e+00 7.747826576232910156e-01
-1.792441368103027344e+00 6.372335815429687500e+01 -2.385300874710083008e+00 7.747826576232910156e-01
-2.816215753555297852e+00 6.368632507324218750e+01 -2.385300874710083008e+00 7.747826576232910156e-01
-4.861215591430664062e+00 6.356294631958007812e+01 -2.385300874710083008e+00 7.747826576232910156e-01
-5.881965160369873047e+00 6.347660064697265625e+01 -2.385300874710083008e+00 7.747827768325805664e-01
-6.901213169097900391e+00 6.337390518188476562e+01 -2.385300874710083008e+00 7.747827172279357910e-01
-7.918662071228027344e+00 6.325482177734375000e+01 -2.385300874710083008e+00 7.747827172279357910e-01
-8.934066772460937500e+00 6.311939239501953125e+01 -2.385300874710083008e+00 7.747827768325805664e-01
-1.095771694183349609e+01 6.279974365234375000e+01 -2.385300874710083008e+00 7.747826576232910156e-01
-1.297003841400146484e+01 6.241519546508789062e+01 -2.385300874710083008e+00 7.747827172279357910e-01
-1.496894264221191406e+01 6.196617126464843750e+01 -2.385300874710083008e+00 7.747827768325805664e-01
-1.695242309570312500e+01 6.145318222045898438e+01 -2.385300874710083008e+00 7.747827172279357910e-01
-1.793770027160644531e+01 6.117283248901367188e+01 -2.385300874710083008e+00 7.747827768325805664e-01
-1.891837882995605469e+01 6.087671661376953125e+01 -2.385300874710083008e+00 7.747826576232910156e-01
-1.989414215087890625e+01 6.056488037109375000e+01 -2.385300874710083008e+00 7.747826576232910156e-01
-2.086476516723632812e+01 6.023736190795898438e+01 -2.385300874710083008e+00 7.747827172279357910e-01
-2.183001136779785156e+01 5.989431381225585938e+01 -2.385300874710083008e+00 7.747827172279357910e-01
-2.278960418701171875e+01 5.953580093383789062e+01 -2.385300874710083008e+00 7.747827172279357910e-01
-2.374332427978515625e+01 5.916193389892578125e+01 -2.385300874710083008e+00 7.747826576232910156e-01
-2.469092941284179688e+01 5.877273178100585938e+01 -2.385300874710083008e+00 7.747827768325805664e-01
-2.656672286987304688e+01 5.794900131225585938e+01 -2.385300874710083008e+00 7.747827172279357910e-01
-2.841513061523437500e+01 5.706536865234375000e+01 -2.385300874710083008e+00 7.747827768325805664e-01
-3.023417854309082031e+01 5.612281036376953125e+01 -2.385300874710083008e+00 7.747827768325805664e-01
-3.113211822509765625e+01 5.562976455688476562e+01 -2.385300874710083008e+00 7.747826576232910156e-01
-3.202200698852539062e+01 5.512230300903320312e+01 -2.385300874710083008e+00 7.747827172279357910e-01
-3.288952636718750000e+01 5.457722473144531250e+01 -2.384278535842895508e+00 7.748674750328063965e-01
-8.230051040649414062e+00 1.317345714569091797e+01 -5.812026858329772949e-01 9.397180080413818359e-01
-1.699864959716796875e+01 2.626023292541503906e+01 -1.170483469963073730e+00 8.823072314262390137e-01
-9.404414176940917969e+00 1.309837818145751953e+01 -6.033492684364318848e-01 9.374943971633911133e-01
-1.038911628723144531e+01 1.308908176422119141e+01 -6.252825856208801270e-01 9.352973103523254395e-01
-1.068407440185546875e+01 1.260656261444091797e+01 -6.183205842971801758e-01 9.359940290451049805e-01
-9.657616615295410156e+00 1.067975521087646484e+01 -5.387663245201110840e-01 9.439938068389892578e-01
-1.069056129455566406e+01 1.144679641723632812e+01 -5.860530138015747070e-01 9.392305612564086914e-01
-1.069257831573486328e+01 1.108634757995605469e+01 -5.763224959373474121e-01 9.402087926864624023e-01
-1.063504886627197266e+01 1.067786121368408203e+01 -5.638976693153381348e-01 9.414591193199157715e-01
-1.765416908264160156e+01 1.662114143371582031e+01 -9.072698950767517090e-01 9.075042009353637695e-01
-1.866944503784179688e+01 1.701946258544921875e+01 -9.452664256095886230e-01 9.038227200508117676e-01
-1.992736053466796875e+01 1.702650260925292969e+01 -9.807336330413818359e-01 9.003999233245849609e-01
-2.155022621154785156e+01 1.668556594848632812e+01 -1.019762516021728516e+00 8.966450095176696777e-01
-2.215180397033691406e+01 1.658892631530761719e+01 -1.035521388053894043e+00 8.951386213302612305e-01
-2.291593360900878906e+01 1.659320259094238281e+01 -1.058628797531127930e+00 8.929275870323181152e-01
-2.522352218627929688e+01 1.705612182617187500e+01 -1.139317393302917480e+00 8.852537274360656738e-01
-2.651454544067382812e+01 1.671332931518554688e+01 -1.172737836837768555e+00 8.820928335189819336e-01
-2.986359214782714844e+01 1.687051773071289062e+01 -1.283391952514648438e+00 8.717142343521118164e-01
-3.105058479309082031e+01 1.688871002197265625e+01 -1.322567701339721680e+00 8.680686354637145996e-01
-1.630874443054199219e+01 8.533788681030273438e+00 -6.887345910072326660e-01 9.289710521697998047e-01
-3.491842269897460938e+01 1.756272506713867188e+01 -1.462503790855407715e+00 8.551700115203857422e-01
-3.616646575927734375e+01 1.675670814514160156e+01 -1.491442322731018066e+00 8.525267839431762695e-01
-3.754951477050781250e+01 1.666993141174316406e+01 -1.537234187126159668e+00 8.483610749244689941e-01
-3.949330902099609375e+01 1.677849578857421875e+01 -1.605499863624572754e+00 8.421822786331176758e-01
-4.115404129028320312e+01 1.670855522155761719e+01 -1.661949634552001953e+00 8.371177315711975098e-01
-4.312369155883789062e+01 1.670622062683105469e+01 -1.730425715446472168e+00 8.310078978538513184e-01
-5.687839889526367188e+01 1.995761680603027344e+01 -2.255448818206787109e+00 7.856204509735107422e-01
-5.710265350341796875e+01 1.901142501831054688e+01 -2.251935482025146484e+00 7.859158515930175781e-01
-5.731101608276367188e+01 1.806312370300292969e+01 -2.248414516448974609e+00 7.862119078636169434e-01
-2.574520492553710938e+01 6.769248008728027344e+00 -9.960592389106750488e-01 8.989251255989074707e-01
-2.581015396118164062e+01 6.344726562500000000e+00 -9.944982528686523438e-01 8.990752100944519043e-01
-2.915530776977539062e+01 5.692890644073486328e+00 -1.111515879631042480e+00 8.878905773162841797e-01
-3.458673858642578125e+01 6.178212642669677734e+00 -1.314628601074218750e+00 8.688061833381652832e-01
-5.973312377929687500e+01 7.721679687500000000e+00 -2.253651618957519531e+00 7.857715487480163574e-01
-6.334566879272460938e+01 7.155761718750000000e+00 -2.385300874710083008e+00 7.747827172279357910e-01
-6.345246505737304688e+01 6.136952877044677734e+00 -2.385300874710083008e+00 7.747827172279357910e-01
-6.361688995361328125e+01 4.094843864440917969e+00 -2.385300874710083008e+00 7.747827768325805664e-01
-6.371562194824218750e+01 2.048466682434082031e+00 -2.385300874710083008e+00 7.747827768325805664e-01
-6.374032592773437500e+01 1.024394512176513672e+00 -2.385300874710083008e+00 7.747827172279357910e-01
-4.913644027709960938e+01 -1.579755783081054688e+00 -2.385300874710083008e+00 8.212903141975402832e-01
-4.910470962524414062e+01 -2.369189500808715820e+00 -2.385300874710083008e+00 8.212903141975402832e-01
-4.875614547729492188e+01 -6.302675724029541016e+00 -2.385300874710083008e+00 8.212903141975402832e-01
-4.852844619750976562e+01 -7.866122722625732422e+00 -2.385300874710083008e+00 8.212902545928955078e-01
-4.839577865600585938e+01 -8.644921302795410156e+00 -2.385300874710083008e+00 8.212902545928955078e-01
-4.747860717773437500e+01 -9.270742416381835938e+00 -2.347135782241821289e+00 8.238814473152160645e-01
-4.809298706054687500e+01 -1.019558525085449219e+01 -2.385300874710083008e+00 8.212903141975402832e-01
-4.785257339477539062e+01 -1.095097637176513672e+01 -2.381797790527343750e+00 8.215277791023254395e-01
-4.431423568725585938e+01 -1.241628837585449219e+01 -2.232900857925415039e+00 8.316863775253295898e-01
-4.410900115966796875e+01 -1.312677669525146484e+01 -2.232900857925415039e+00 8.316863775253295898e-01
-4.389237594604492188e+01 -1.383383750915527344e+01 -2.232900857925415039e+00 8.316863775253295898e-01
-4.317473602294921875e+01 -1.593291950225830078e+01 -2.232900857925415039e+00 8.316863775253295898e-01
-4.291313552856445312e+01 -1.662463760375976562e+01 -2.232900857925415039e+00 8.316863775253295898e-01
-4.235678100585937500e+01 -1.799499893188476562e+01 -2.232900857925415039e+00 8.316863775253295898e-01
-4.206213760375976562e+01 -1.867330932617187500e+01 -2.232900857925415039e+00 8.316863775253295898e-01
-4.175666046142578125e+01 -1.934676742553710938e+01 -2.232900857925415039e+00 8.316863775253295898e-01
-4.077581787109375000e+01 -2.133656120300292969e+01 -2.232900857925415039e+00 8.316863775253295898e-01
-3.934545898437500000e+01 -2.140038108825683594e+01 -2.173126697540283203e+00 8.357998132705688477e-01
-3.798416519165039062e+01 -2.145798873901367188e+01 -2.116713523864746094e+00 8.397005200386047363e-01
-3.644232559204101562e+01 -2.136662101745605469e+01 -2.049663543701171875e+00 8.443604707717895508e-01
-3.556838607788085938e+01 -2.162964820861816406e+01 -2.019800186157226562e+00 8.464443087577819824e-01
-3.275072097778320312e+01 -2.138726425170898438e+01 -1.897860646247863770e+00 8.550065159797668457e-01
-2.877906608581542969e+01 -2.155194282531738281e+01 -1.744485139846801758e+00 8.658990859985351562e-01
-2.566410827636718750e+01 -2.192814445495605469e+01 -1.637835621833801270e+00 8.735550045967102051e-01
-2.657106399536132812e+01 -2.345211791992187500e+01 -1.719544887542724609e+00 8.676833510398864746e-01
-2.377969360351562500e+01 -2.167808532714843750e+01 -1.561248540878295898e+00 8.790946006774902344e-01
-2.297575187683105469e+01 -2.163131713867187500e+01 -1.531059384346008301e+00 8.812855482101440430e-01
-2.216110992431640625e+01 -2.154648399353027344e+01 -1.499689102172851562e+00 8.835729360580444336e-01
-2.146396636962890625e+01 -2.155039024353027344e+01 -1.475750207901000977e+00 8.853198289871215820e-01
-2.098045921325683594e+01 -2.175309562683105469e+01 -1.466358184814453125e+00 8.860067725181579590e-01
-1.967772674560546875e+01 -2.176037979125976562e+01 -1.423468589782714844e+00 8.891488313674926758e-01
-1.844777297973632812e+01 -2.176726531982421875e+01 -1.384404540061950684e+00 8.920202851295471191e-01
-1.777581024169921875e+01 -2.167101478576660156e+01 -1.359939575195312500e+00 8.938234448432922363e-01
-1.712432289123535156e+01 -2.157466697692871094e+01 -1.336451649665832520e+00 8.955579996109008789e-01
-1.664512825012207031e+01 -2.167735290527343750e+01 -1.326068639755249023e+00 8.963256478309631348e-01
-1.578285121917724609e+01 -2.198218727111816406e+01 -1.312997579574584961e+00 8.972932100296020508e-01
-1.525562477111816406e+01 -2.198513603210449219e+01 -1.298362135887145996e+00 8.983777761459350586e-01
-8.523278236389160156e+00 -1.523016548156738281e+01 -8.468009829521179199e-01 9.324928522109985352e-01
-9.560002326965332031e+00 -1.774595642089843750e+01 -9.779927134513854980e-01 9.224485754966735840e-01
-1.220958423614501953e+01 -2.906292915344238281e+01 -1.529497623443603516e+00 8.814014196395874023e-01
-1.221729183197021484e+01 -3.044216728210449219e+01 -1.591543793678283691e+00 8.768990635871887207e-01
-1.505255603790283203e+01 -3.932345581054687500e+01 -2.042948722839355469e+00 8.448281288146972656e-01
-1.199954032897949219e+01 -3.861288833618164062e+01 -1.961838960647583008e+00 8.505024313926696777e-01
-1.152197265625000000e+01 -3.929330062866210938e+01 -1.986763358116149902e+00 8.487558364868164062e-01
-7.728605747222900391e+00 -3.719205093383789062e+01 -1.843084216117858887e+00 8.588808774948120117e-01
-6.857511997222900391e+00 -3.930113220214843750e+01 -1.935675024986267090e+00 8.523420095443725586e-01
-6.209082126617431641e+00 -3.930475616455078125e+01 -1.930690407752990723e+00 8.526927828788757324e-01
-5.207089900970458984e+00 -3.678820419311523438e+01 -1.802716374397277832e+00 8.617462515830993652e-01
-4.302114009857177734e+00 -3.950642395019531250e+01 -1.928157925605773926e+00 8.528710603713989258e-01
-3.661132812500000000e+00 -3.951001739501953125e+01 -1.925212979316711426e+00 8.530783653259277344e-01
-2.372685432434082031e+00 -3.932621002197265625e+01 -1.911552548408508301e+00 8.540408015251159668e-01
7.917822003364562988e-01 -3.941197204589843750e+01 -1.912629365921020508e+00 8.539648652076721191e-01
1.949599623680114746e+00 -3.729618072509765625e+01 -1.812058091163635254e+00 8.610832095146179199e-01
4.604687213897705078e+00 -3.934468841552734375e+01 -1.922008633613586426e+00 8.533040881156921387e-01
5.247328758239746094e+00 -3.934828186035156250e+01 -1.926054477691650391e+00 8.530191183090209961e-01
6.573408126831054688e+00 -3.954669952392578125e+01 -1.945107102394104004e+00 8.516788482666015625e-01
7.827172756195068359e+00 -3.924674606323242188e+01 -1.941749215126037598e+00 8.519163727760314941e-01
7.936781883239746094e+00 -3.671062469482421875e+01 -1.822328090667724609e+00 8.603535294532775879e-01
9.842275619506835938e+00 -3.935533142089843750e+01 -1.968303203582763672e+00 8.500497341156005859e-01
1.190325641632080078e+01 -3.724440383911132812e+01 -1.897120952606201172e+00 8.550586700439453125e-01
1.251858329772949219e+01 -3.710283279418945312e+01 -1.899912357330322266e+00 8.548617362976074219e-01
1.308827114105224609e+01 -3.682686614990234375e+01 -1.896306991577148438e+00 8.551161885261535645e-01
1.365838336944580078e+01 -3.655838775634765625e+01 -1.893517136573791504e+00 8.553114533424377441e-01
1.556032180786132812e+01 -3.622098541259765625e+01 -1.912724256515502930e+00 8.539582490921020508e-01
1.625738716125488281e+01 -3.622710800170898438e+01 -1.926595449447631836e+00 8.529810905456542969e-01
1.841326713562011719e+01 -3.624599456787109375e+01 -1.972550511360168457e+00 8.497518897056579590e-01
1.911017036437988281e+01 -3.616656112670898438e+01 -1.984683513641357422e+00 8.489012122154235840e-01
1.986365699768066406e+01 -3.617316436767578125e+01 -2.002306222915649414e+00 8.476673960685729980e-01
2.067990112304687500e+01 -3.626585769653320312e+01 -2.025572538375854492e+00 8.460411429405212402e-01
2.146345138549804688e+01 -3.627273178100585938e+01 -2.044958114624023438e+00 8.446885347366333008e-01
2.476022911071777344e+01 -3.630163192749023438e+01 -2.132025957107543945e+00 8.386399745941162109e-01
2.651986694335937500e+01 -3.631705856323242188e+01 -2.181878805160522461e+00 8.351962566375732422e-01
2.743139076232910156e+01 -3.632504653930664062e+01 -2.208559036254882812e+00 8.333590626716613770e-01
2.889953041076660156e+01 -3.581526184082031250e+01 -2.232900857925415039e+00 8.316863775253295898e-01
2.947130775451660156e+01 -3.534626007080078125e+01 -2.232900857925415039e+00 8.316863775253295898e-01
1.085957050323486328e+01 -1.260684585571289062e+01 -8.073231577873229980e-01 9.355365633964538574e-01
1.081572723388671875e+01 -1.176895523071289062e+01 -7.755337357521057129e-01 9.379944801330566406e-01
1.224411106109619141e+01 -1.290086841583251953e+01 -8.629772663116455078e-01 9.312489032745361328e-01
1.264649868011474609e+01 -1.290312480926513672e+01 -8.766101002693176270e-01 9.302016496658325195e-01
1.349125003814697266e+01 -1.290785121917724609e+01 -9.059310555458068848e-01 9.279531836509704590e-01
1.416858863830566406e+01 -1.230436515808105469e+01 -9.104930162429809570e-01 9.276038408279418945e-01
3.522759246826171875e+01 -2.961306571960449219e+01 -2.232900857925415039e+00 8.316863775253295898e-01
3.569888687133789062e+01 -2.904316329956054688e+01 -2.232900857925415039e+00 8.316863775253295898e-01
3.616096496582031250e+01 -2.846578025817871094e+01 -2.232900857925415039e+00 8.316863775253295898e-01
3.705698013305664062e+01 -2.728913116455078125e+01 -2.232900857925415039e+00 8.316863775253295898e-01
3.749070358276367188e+01 -2.669012641906738281e+01 -2.232900857925415039e+00 8.316863775253295898e-01
3.791474533081054688e+01 -2.608425712585449219e+01 -2.232900857925415039e+00 8.316863775253295898e-01
3.832898330688476562e+01 -2.547163963317871094e+01 -2.232900857925415039e+00 8.316863775253295898e-01
3.873333740234375000e+01 -2.485246086120605469e+01 -2.232900857925415039e+00 8.316863775253295898e-01
3.912767410278320312e+01 -2.422685432434082031e+01 -2.232900857925415039e+00 8.316864371299743652e-01
3.988596725463867188e+01 -2.295702171325683594e+01 -2.232900857925415039e+00 8.316864371299743652e-01
4.409556579589843750e+01 -2.173633766174316406e+01 -2.385300874710083008e+00 8.212901949882507324e-01
4.509180450439453125e+01 -1.958609390258789062e+01 -2.385300874710083008e+00 8.212902545928955078e-01
4.569789123535156250e+01 -1.812705993652343750e+01 -2.385300874710083008e+00 8.212901949882507324e-01
4.598326873779296875e+01 -1.739039993286132812e+01 -2.385300874710083008e+00 8.212902545928955078e-01
4.700530242919921875e+01 -1.440079116821289062e+01 -2.385300874710083008e+00 8.212904334068298340e-01
4.723067092895507812e+01 -1.364366149902343750e+01 -2.385300874710083008e+00 8.212902545928955078e-01
4.744381713867187500e+01 -1.288293933868408203e+01 -2.385300874710083008e+00 8.212902545928955078e-01
4.783330917358398438e+01 -1.135173797607421875e+01 -2.385300874710083008e+00 8.212901949882507324e-01
4.817335891723632812e+01 -9.808837890625000000e+00 -2.385300874710083008e+00 8.212902545928955078e-01
4.846368026733398438e+01 -8.255790710449218750e+00 -2.385300874710083008e+00 8.212902545928955078e-01
4.859008789062500000e+01 -7.475976467132568359e+00 -2.385300874710083008e+00 8.212902545928955078e-01
4.870393371582031250e+01 -6.694228172302246094e+00 -2.385300874710083008e+00 8.212902545928955078e-01
4.889390563964843750e+01 -5.125722408294677734e+00 -2.385300874710083008e+00 8.212902545928955078e-01
4.896995162963867188e+01 -4.339384555816650391e+00 -2.385300874710083008e+00 8.212902545928955078e-01
4.765660095214843750e+01 -1.915585875511169434e+00 -2.314134836196899414e+00 8.261286616325378418e-01
4.663204956054687500e+01 -1.124248027801513672e+00 -2.263214349746704102e+00 8.296080827713012695e-01
4.601933670043945312e+01 -3.697558641433715820e-01 -2.232900857925415039e+00 8.316863775253295898e-01
4.601935577392578125e+01 3.697851598262786865e-01 -2.232900857925415039e+00 8.316863179206848145e-01
4.600745010375976562e+01 1.109189391136169434e+00 -2.232900857925415039e+00 8.316863775253295898e-01
4.590056610107421875e+01 3.324999809265136719e+00 -2.232900857925415039e+00 8.316863179206848145e-01
4.584120178222656250e+01 4.062138557434082031e+00 -2.232900857925415039e+00 8.316863775253295898e-01
4.577000045776367188e+01 4.798232078552246094e+00 -2.232900857925415039e+00 8.316863775253295898e-01
4.568700027465820312e+01 5.533095359802246094e+00 -2.232900857925415039e+00 8.316863179206848145e-01
4.559217834472656250e+01 6.266503810882568359e+00 -2.232900857925415039e+00 8.316863775253295898e-01
4.548559570312500000e+01 6.998310565948486328e+00 -2.232900857925415039e+00 8.316863775253295898e-01
4.541032028198242188e+01 7.735663890838623047e+00 -2.235019683837890625e+00 8.315409421920776367e-01
4.522229385375976562e+01 9.207900047302246094e+00 -2.239179134368896484e+00 8.312555551528930664e-01
4.510962677001953125e+01 9.942617416381835938e+00 -2.241222143173217773e+00 8.311152458190917969e-01
4.498446273803710938e+01 1.067564392089843750e+01 -2.243237972259521484e+00 8.309770822525024414e-01
4.470518493652343750e+01 1.213924789428710938e+01 -2.247612237930297852e+00 8.306771516799926758e-01
4.454452133178710938e+01 1.286761665344238281e+01 -2.249641180038452148e+00 8.305380940437316895e-01
4.437145233154296875e+01 1.359387683868408203e+01 -2.251643419265747070e+00 8.304008245468139648e-01
4.418599700927734375e+01 1.431767559051513672e+01 -2.253617286682128906e+00 8.302654623985290527e-01
4.398815155029296875e+01 1.503879833221435547e+01 -2.255562543869018555e+00 8.301322460174560547e-01
4.377798843383789062e+01 1.575706958770751953e+01 -2.257478713989257812e+00 8.300008773803710938e-01
4.333363342285156250e+01 1.718917846679687500e+01 -2.261893510818481445e+00 8.296985626220703125e-01
4.309009552001953125e+01 1.789920806884765625e+01 -2.263903617858886719e+00 8.295608758926391602e-01
4.283270263671875000e+01 1.860485267639160156e+01 -2.265796899795532227e+00 8.294312357902526855e-01
4.256316375732421875e+01 1.930656242370605469e+01 -2.267658948898315430e+00 8.293038010597229004e-01
4.228152084350585938e+01 2.000413131713867188e+01 -2.269489049911499023e+00 8.291785717010498047e-01
4.199325942993164062e+01 2.070009803771972656e+01 -2.271579027175903320e+00 8.290354013442993164e-01
4.036668777465820312e+01 2.410552597045898438e+01 -2.281204938888549805e+00 8.283769488334655762e-01
4.000505828857421875e+01 2.477010726928710938e+01 -2.282969236373901367e+00 8.282564282417297363e-01
3.924794006347656250e+01 2.608234405517578125e+01 -2.286434650421142578e+00 8.280195593833923340e-01
1.238367176055908203e+01 8.519609451293945312e+00 -7.293080091476440430e-01 9.415801167488098145e-01
1.239062023162841797e+01 8.821054458618164062e+00 -7.379702329635620117e-01 9.409071207046508789e-01
1.239407157897949219e+01 9.437988281250000000e+00 -7.558572292327880859e-01 9.395190477371215820e-01
1.234872055053710938e+01 9.720859527587890625e+00 -7.625199556350708008e-01 9.390025138854980469e-01
3.628542709350585938e+01 3.050230407714843750e+01 -2.299952030181884766e+00 8.270962834358215332e-01
1.014866638183593750e+01 9.709794998168945312e+00 -6.814777851104736328e-01 9.453046321868896484e-01
9.037954330444335938e+00 8.929667472839355469e+00 -6.164512634277343750e-01 9.503919482231140137e-01
9.084345817565917969e+00 9.268681526184082031e+00 -6.296938657760620117e-01 9.493536353111267090e-01
3.229032135009765625e+01 3.513621139526367188e+01 -2.315353393554687500e+00 8.260455131530761719e-01
3.174874877929687500e+01 3.568109130859375000e+01 -2.317338943481445312e+00 8.259102702140808105e-01
3.063053703308105469e+01 3.673644638061523438e+01 -2.320730447769165039e+00 8.256793618202209473e-01
2.888969612121582031e+01 3.825617218017578125e+01 -2.325969696044921875e+00 8.253220319747924805e-01
2.768777847290039062e+01 3.922464752197265625e+01 -2.329527854919433594e+00 8.250796794891357422e-01
2.707231903076171875e+01 3.969138717651367188e+01 -2.331112384796142578e+00 8.249719738960266113e-01
2.581870460510253906e+01 4.059718704223632812e+01 -2.334348440170288086e+00 8.247514367103576660e-01
2.254865646362304688e+01 4.267406082153320312e+01 -2.341789007186889648e+00 8.242450356483459473e-01
1.794991683959960938e+01 3.533394622802734375e+01 -1.922914028167724609e+00 8.532402515411376953e-01
1.259063434600830078e+01 2.580292892456054688e+01 -1.393034577369689941e+00 8.913851380348205566e-01
1.183384704589843750e+01 2.636993026733398438e+01 -1.402379870414733887e+00 8.906978368759155273e-01
3.613872051239013672e+00 8.412275314331054688e+00 -4.442272782325744629e-01 9.639982581138610840e-01
1.550964355468750000e+01 4.596779251098632812e+01 -2.353856801986694336e+00 8.234245181083679199e-01
1.477508735656738281e+01 4.623011779785156250e+01 -2.354826927185058594e+00 8.233585953712463379e-01
1.403595161437988281e+01 4.648023223876953125e+01 -2.355774164199829102e+00 8.232942819595336914e-01
1.329203605651855469e+01 4.671657943725585938e+01 -2.356621265411376953e+00 8.232367038726806641e-01
1.254388618469238281e+01 4.694001770019531250e+01 -2.357419252395629883e+00 8.231824636459350586e-01
1.179173755645751953e+01 4.715048599243164062e+01 -2.358167886734008789e+00 8.231316208839416504e-01
1.103584003448486328e+01 4.734792709350585938e+01 -2.358866930007934570e+00 8.230841159820556641e-01
9.513847351074218750e+00 4.770398330688476562e+01 -2.360148668289184570e+00 8.229970932006835938e-01
4.882666110992431641e+00 4.845159912109375000e+01 -2.362747192382812500e+00 8.228205442428588867e-01
3.323842763900756836e+00 4.859257888793945312e+01 -2.363190174102783203e+00 8.227904438972473145e-01
9.784374833106994629e-01 4.870263671875000000e+01 -2.363497018814086914e+00 8.227695822715759277e-01
-5.870410203933715820e-01 4.870757675170898438e+01 -2.363431692123413086e+00 8.227740526199340820e-01
-2.151664972305297852e+00 4.865822219848632812e+01 -2.363173246383666992e+00 8.227916359901428223e-01
-2.933037042617797852e+00 4.861331939697265625e+01 -2.362975358963012695e+00 8.228049874305725098e-01
-3.713403224945068359e+00 4.855456924438476562e+01 -2.362715482711791992e+00 8.228226304054260254e-01
-6.820231914520263672e+00 4.818511581420898438e+01 -2.361215353012084961e+00 8.229246735572814941e-01
-8.361290931701660156e+00 4.791939163208007812e+01 -2.360146045684814453e+00 8.229972124099731445e-01
-1.216227531433105469e+01 4.702365112304687500e+01 -2.356636047363281250e+00 8.232357501983642578e-01
-1.365687465667724609e+01 4.657392501831054688e+01 -2.354884624481201172e+00 8.233547210693359375e-01
-1.439780235290527344e+01 4.633013534545898438e+01 -2.353953838348388672e+00 8.234180212020874023e-01
