-1.205151319503784180e+00 0.000000000000000000e+00 -5.139217972755432129e-01 9.947730898857116699e-01
-1.222167968750000000e+00 -5.896484106779098511e-02 -5.217832922935485840e-01 9.946933388710021973e-01
-1.226757764816284180e+00 -9.877929836511611938e-02 -5.248269438743591309e-01 9.946624636650085449e-01
-1.222700119018554688e+00 -1.580566316843032837e-01 -5.257427692413330078e-01 9.946531653404235840e-01
-1.218422770500183105e+00 -1.774609386920928955e-01 -5.250622630119323730e-01 9.946600794792175293e-01
-1.212714791297912598e+00 -1.965722590684890747e-01 -5.238960385322570801e-01 9.946718811988830566e-01
-1.205595731735229492e+00 -2.153613269329071045e-01 -5.222489833831787109e-01 9.946886301040649414e-01
-1.187285184860229492e+00 -2.517089843750000000e-01 -5.175536870956420898e-01 9.947362542152404785e-01
-1.169135689735412598e+00 -2.874023318290710449e-01 -5.134065151214599609e-01 9.947783350944519043e-01
-1.167656183242797852e+00 -3.070214688777923584e-01 -5.148556232452392578e-01 9.947636127471923828e-01
-1.182075142860412598e+00 -3.312109410762786865e-01 -5.234933495521545410e-01 9.946759939193725586e-01
-1.379550695419311523e+00 -4.592871069908142090e-01 -6.200374960899353027e-01 9.936972260475158691e-01
-1.496381759643554688e+00 -5.522167682647705078e-01 -6.801782250404357910e-01 9.930880069732666016e-01
-1.592900395393371582e+00 -6.170898079872131348e-01 -7.284619212150573730e-01 9.925991296768188477e-01
-5.028373718261718750e+00 -2.232333898544311523e+00 -2.346100807189941406e+00 9.763600230216979980e-01
-4.991855144500732422e+00 -2.312831878662109375e+00 -2.346100807189941406e+00 9.763600230216979980e-01
-4.914956092834472656e+00 -2.472050666809082031e+00 -2.346100807189941406e+00 9.763600230216979980e-01
-4.874599456787109375e+00 -2.550703048706054688e+00 -2.346100807189941406e+00 9.763600230216979980e-01
-4.832983493804931641e+00 -2.628710985183715820e+00 -2.346100807189941406e+00 9.763600230216979980e-01
-4.654150485992431641e+00 -2.933710813522338867e+00 -2.346100807189941406e+00 9.763600230216979980e-01
-4.403671741485595703e+00 -3.297802686691284180e+00 -2.346100807189941406e+00 9.763600230216979980e-01
-4.295429706573486328e+00 -3.437607288360595703e+00 -2.346100807189941406e+00 9.763600230216979980e-01
-4.239633560180664062e+00 -3.506171703338623047e+00 -2.346100807189941406e+00 9.763600826263427734e-01
-4.182748794555664062e+00 -3.573857307434082031e+00 -2.346100807189941406e+00 9.763600230216979980e-01
-4.124784946441650391e+00 -3.640595674514770508e+00 -2.346100807189941406e+00 9.763600230216979980e-01
-4.065746784210205078e+00 -3.706406116485595703e+00 -2.346100807189941406e+00 9.763600230216979980e-01
-3.944550752639770508e+00 -3.835156202316284180e+00 -2.346100807189941406e+00 9.763600230216979980e-01
-3.819277286529541016e+00 -3.959921836853027344e+00 -2.346100807189941406e+00 9.763600230216979980e-01
-3.690053701400756836e+00 -4.080615043640136719e+00 -2.346100807189941406e+00 9.763600230216979980e-01
-3.624008655548095703e+00 -4.139374732971191406e+00 -2.346100807189941406e+00 9.763600230216979980e-01
-3.557021379470825195e+00 -4.197070121765136719e+00 -2.346100807189941406e+00 9.763600230216979980e-01
-3.489120960235595703e+00 -4.253691196441650391e+00 -2.346100807189941406e+00 9.763600230216979980e-01
-3.280082941055297852e+00 -4.416884899139404297e+00 -2.346100807189941406e+00 9.763600230216979980e-01
-3.208681583404541016e+00 -4.469023227691650391e+00 -2.346100807189941406e+00 9.763600230216979980e-01
-3.136455059051513672e+00 -4.520009517669677734e+00 -2.346100807189941406e+00 9.763600230216979980e-01
-3.063412904739379883e+00 -4.569824218750000000e+00 -2.346100807189941406e+00 9.763600230216979980e-01
-2.839638710021972656e+00 -4.712138652801513672e+00 -2.346100807189941406e+00 9.763600230216979980e-01
-2.609262704849243164e+00 -4.843505859375000000e+00 -2.346100807189941406e+00 9.763600230216979980e-01
-2.372822284698486328e+00 -4.963632583618164062e+00 -2.346100807189941406e+00 9.763599634170532227e-01
-1.966782212257385254e+00 -5.138056755065917969e+00 -2.346100807189941406e+00 9.763600230216979980e-01
-1.883964776992797852e+00 -5.169003963470458984e+00 -2.346100807189941406e+00 9.763599634170532227e-01
-1.632690429687500000e+00 -5.253779411315917969e+00 -2.346100807189941406e+00 9.763600230216979980e-01
-1.463022470474243164e+00 -5.303534984588623047e+00 -2.346100807189941406e+00 9.763600230216979980e-01
-1.377612233161926270e+00 -5.326357364654541016e+00 -2.346100807189941406e+00 9.763600230216979980e-01
-1.119340777397155762e+00 -5.386552810668945312e+00 -2.346100807189941406e+00 9.763600230216979980e-01
-1.032631754875183105e+00 -5.403837680816650391e+00 -2.346100807189941406e+00 9.763600230216979980e-01
-8.584521412849426270e-01 -5.434237957000732422e+00 -2.346100807189941406e+00 9.763600230216979980e-01
-3.313232362270355225e-01 -5.491640567779541016e+00 -2.346100807189941406e+00 9.763600230216979980e-01
-1.546923816204071045e-01 -5.499443054199218750e+00 -2.346100807189941406e+00 9.763600230216979980e-01
-6.629882752895355225e-02 -5.501220703125000000e+00 -2.346100807189941406e+00 9.763600230216979980e-01
2.210937440395355225e-02 -5.501582145690917969e+00 -2.346100807189941406e+00 9.763600230216979980e-01
1.988769471645355225e-01 -5.498017311096191406e+00 -2.346100807189941406e+00 9.763600230216979980e-01
2.872021496295928955e-01 -5.494111061096191406e+00 -2.346100807189941406e+00 9.763600230216979980e-01
5.516308546066284180e-01 -5.473886489868164062e+00 -2.346100807189941406e+00 9.763600826263427734e-01
8.147753477096557617e-01 -5.440957069396972656e+00 -2.346100807189941406e+00 9.763600230216979980e-01
9.020996093750000000e-01 -5.427167892456054688e+00 -2.346100807189941406e+00 9.763599634170532227e-01
1.420375943183898926e+00 -5.315116882324218750e+00 -2.346100807189941406e+00 9.763599634170532227e-01
1.674863219261169434e+00 -5.240488052368164062e+00 -2.346100807189941406e+00 9.763600230216979980e-01
1.758847594261169434e+00 -5.212919712066650391e+00 -2.346100807189941406e+00 9.763599634170532227e-01
1.842387676239013672e+00 -5.183964729309082031e+00 -2.346100807189941406e+00 9.763600230216979980e-01
2.008012533187866211e+00 -5.122089862823486328e+00 -2.346100807189941406e+00 9.763599634170532227e-01
2.090058565139770508e+00 -5.089159965515136719e+00 -2.346100807189941406e+00 9.763600230216979980e-01
2.171567440032958984e+00 -5.054921627044677734e+00 -2.346100807189941406e+00 9.763599634170532227e-01
2.332870960235595703e+00 -4.982529163360595703e+00 -2.346100807189941406e+00 9.763600230216979980e-01
2.412641525268554688e+00 -4.944414138793945312e+00 -2.346100807189941406e+00 9.763599634170532227e-01
2.491782188415527344e+00 -4.904990196228027344e+00 -2.346100807189941406e+00 9.763600230216979980e-01
2.570278167724609375e+00 -4.864316463470458984e+00 -2.346100807189941406e+00 9.763600230216979980e-01
2.648110389709472656e+00 -4.822382926940917969e+00 -2.346100807189941406e+00 9.763600230216979980e-01
3.026616096496582031e+00 -4.594296932220458984e+00 -2.346100807189941406e+00 9.763599634170532227e-01
3.100053548812866211e+00 -4.545058727264404297e+00 -2.346100807189941406e+00 9.763600230216979980e-01
3.172690391540527344e+00 -4.494657993316650391e+00 -2.346100807189941406e+00 9.763600230216979980e-01
3.244497060775756836e+00 -4.443105220794677734e+00 -2.346100807189941406e+00 9.763599634170532227e-01
3.454833984375000000e+00 -4.281581878662109375e+00 -2.346100807189941406e+00 9.763600230216979980e-01
3.523193359375000000e+00 -4.225517272949218750e+00 -2.346100807189941406e+00 9.763600230216979980e-01
3.590634584426879883e+00 -4.168359279632568359e+00 -2.346100807189941406e+00 9.763600230216979980e-01
3.657153129577636719e+00 -4.110126972198486328e+00 -2.346100807189941406e+00 9.763600230216979980e-01
3.787333965301513672e+00 -3.990488290786743164e+00 -2.346100807189941406e+00 9.763600230216979980e-01
3.850971698760986328e+00 -3.929121017456054688e+00 -2.346100807189941406e+00 9.763599634170532227e-01
3.913608312606811523e+00 -3.866718769073486328e+00 -2.346100807189941406e+00 9.763600230216979980e-01
4.035844802856445312e+00 -3.738964796066284180e+00 -2.346100807189941406e+00 9.763600230216979980e-01
4.211323261260986328e+00 -3.540136575698852539e+00 -2.346100807189941406e+00 9.763600230216979980e-01
4.322915077209472656e+00 -3.402978420257568359e+00 -2.346100807189941406e+00 9.763600230216979980e-01
4.430034160614013672e+00 -3.262314319610595703e+00 -2.346100807189941406e+00 9.763600230216979980e-01
4.481879711151123047e+00 -3.190703153610229492e+00 -2.346100807189941406e+00 9.763600230216979980e-01
4.582089900970458984e+00 -3.045058488845825195e+00 -2.346100807189941406e+00 9.763599634170532227e-01
4.630429744720458984e+00 -2.971015453338623047e+00 -2.346100807189941406e+00 9.763600230216979980e-01
4.894936561584472656e+00 -2.511464834213256836e+00 -2.346100807189941406e+00 9.763600230216979980e-01
5.010278224945068359e+00 -2.272665977478027344e+00 -2.346100807189941406e+00 9.763600230216979980e-01
1.949462890625000000e+00 -8.097851276397705078e-01 -9.001914858818054199e-01 9.908624291419982910e-01
1.905693292617797852e+00 -7.207129001617431641e-01 -8.688314557075500488e-01 9.911793470382690430e-01
1.928383708000183105e+00 -6.592773199081420898e-01 -8.690641522407531738e-01 9.911770224571228027e-01
1.938691377639770508e+00 -6.281933188438415527e-01 -8.690479993820190430e-01 9.911772012710571289e-01
1.948300719261169434e+00 -5.968945026397705078e-01 -8.689431548118591309e-01 9.911782145500183105e-01
1.964946269989013672e+00 -5.335644483566284180e-01 -8.682673573493957520e-01 9.911850690841674805e-01
1.972089767456054688e+00 -5.016210675239562988e-01 -8.677517771720886230e-01 9.911903142929077148e-01
1.978530287742614746e+00 -4.695410132408142090e-01 -8.671516180038452148e-01 9.911963343620300293e-01
1.992973566055297852e+00 -3.725585937500000000e-01 -8.646000623703002930e-01 9.912221431732177734e-01
1.995512604713439941e+00 -3.399414122104644775e-01 -8.632181882858276367e-01 9.912360906600952148e-01
1.997329115867614746e+00 -3.073144555091857910e-01 -8.617557883262634277e-01 9.912508726119995117e-01
1.998427748680114746e+00 -2.746777236461639404e-01 -8.602135777473449707e-01 9.912664890289306641e-01
1.998481392860412598e+00 -2.095117121934890747e-01 -8.568960428237915039e-01 9.912999868392944336e-01
1.992167949676513672e+00 -8.007812500000000000e-02 -8.502197265625000000e-01 9.913675189018249512e-01
1.987172842025756836e+00 -1.596679724752902985e-02 -8.474310040473937988e-01 9.913957118988037109e-01
1.992172837257385254e+00 8.007812500000000000e-02 -8.502201437950134277e-01 9.913675189018249512e-01
1.993505835533142090e+00 1.122460886836051941e-01 -8.514502048492431641e-01 9.913550615310668945e-01
1.997451186180114746e+00 1.770019531250000000e-01 -8.551234006881713867e-01 9.913179278373718262e-01
1.997329115867614746e+00 3.072949051856994629e-01 -8.617562651634216309e-01 9.912508726119995117e-01
1.989262700080871582e+00 4.050390422344207764e-01 -8.656998872756958008e-01 9.912109971046447754e-01
1.984252929687500000e+00 4.373437464237213135e-01 -8.664677143096923828e-01 9.912032485008239746e-01
1.978530287742614746e+00 4.695410132408142090e-01 -8.671519160270690918e-01 9.911963343620300293e-01
1.957089781761169434e+00 5.653515458106994629e-01 -8.686985373497009277e-01 9.911807179450988770e-01
1.917382717132568359e+00 6.901269555091857910e-01 -8.689924478530883789e-01 9.911777377128601074e-01
1.905693292617797852e+00 7.207129001617431641e-01 -8.688317537307739258e-01 9.911793470382690430e-01
1.966557621955871582e+00 8.541894555091857910e-01 -9.143072366714477539e-01 9.907198548316955566e-01
5.010287761688232422e+00 2.272646427154541016e+00 -2.346100807189941406e+00 9.763600230216979980e-01
4.894936561584472656e+00 2.511464834213256836e+00 -2.346100807189941406e+00 9.763600230216979980e-01
4.811718463897705078e+00 2.667460918426513672e+00 -2.346100807189941406e+00 9.763599634170532227e-01
4.768222332000732422e+00 2.744414091110229492e+00 -2.346100807189941406e+00 9.763600230216979980e-01
4.723510742187500000e+00 2.820693254470825195e+00 -2.346100807189941406e+00 9.763600230216979980e-01
4.677573204040527344e+00 2.896230459213256836e+00 -2.346100807189941406e+00 9.763600230216979980e-01
4.630429744720458984e+00 2.971015453338623047e+00 -2.346100807189941406e+00 9.763600230216979980e-01
4.532573223114013672e+00 3.118281126022338867e+00 -2.346100807189941406e+00 9.763600230216979980e-01
4.430034160614013672e+00 3.262333869934082031e+00 -2.346100807189941406e+00 9.763599634170532227e-01
4.377040863037109375e+00 3.333076000213623047e+00 -2.346100807189941406e+00 9.763600230216979980e-01
4.322915077209472656e+00 3.402968645095825195e+00 -2.346100807189941406e+00 9.763600230216979980e-01
4.035844802856445312e+00 3.738964796066284180e+00 -2.346100807189941406e+00 9.763600230216979980e-01
3.850971698760986328e+00 3.929121017456054688e+00 -2.346100807189941406e+00 9.763599634170532227e-01
3.722729444503784180e+00 4.050829887390136719e+00 -2.346100807189941406e+00 9.763599634170532227e-01
3.657153129577636719e+00 4.110126972198486328e+00 -2.346100807189941406e+00 9.763600230216979980e-01
3.523198127746582031e+00 4.225527286529541016e+00 -2.346100807189941406e+00 9.763599634170532227e-01
3.454838752746582031e+00 4.281581878662109375e+00 -2.346100807189941406e+00 9.763600230216979980e-01
3.100048780441284180e+00 4.545068264007568359e+00 -2.346100807189941406e+00 9.763599634170532227e-01
2.952402353286743164e+00 4.642314434051513672e+00 -2.346100807189941406e+00 9.763600230216979980e-01
2.725253820419311523e+00 4.779218673706054688e+00 -2.346100807189941406e+00 9.763599634170532227e-01
2.491772413253784180e+00 4.904990196228027344e+00 -2.346100807189941406e+00 9.763600230216979980e-01
2.171562433242797852e+00 5.054921627044677734e+00 -2.346100807189941406e+00 9.763600230216979980e-01
2.008012533187866211e+00 5.122079849243164062e+00 -2.346100807189941406e+00 9.763600230216979980e-01
1.842387676239013672e+00 5.183955192565917969e+00 -2.346100807189941406e+00 9.763600230216979980e-01
1.758842706680297852e+00 5.212900161743164062e+00 -2.346100807189941406e+00 9.763600230216979980e-01
1.334785103797912598e+00 5.337236404418945312e+00 -2.346100807189941406e+00 9.763600230216979980e-01
1.248832941055297852e+00 5.358007907867431641e+00 -2.346100807189941406e+00 9.763600230216979980e-01
1.162587881088256836e+00 5.377372741699218750e+00 -2.346100807189941406e+00 9.763600230216979980e-01
1.076030254364013672e+00 5.395361423492431641e+00 -2.346100807189941406e+00 9.763600230216979980e-01
7.272412180900573730e-01 5.453349590301513672e+00 -2.346100807189941406e+00 9.763600230216979980e-01
6.395117044448852539e-01 5.464325904846191406e+00 -2.346100807189941406e+00 9.763600230216979980e-01
4.635986089706420898e-01 5.482050895690917969e+00 -2.346100807189941406e+00 9.763600230216979980e-01
3.754492104053497314e-01 5.488798618316650391e+00 -2.346100807189941406e+00 9.763600230216979980e-01
2.872021496295928955e-01 5.494130611419677734e+00 -2.346100807189941406e+00 9.763599634170532227e-01
1.105078086256980896e-01 5.500507831573486328e+00 -2.346100807189941406e+00 9.763600230216979980e-01
2.210937440395355225e-02 5.501582145690917969e+00 -2.346100807189941406e+00 9.763600230216979980e-01
-1.546874940395355225e-01 5.499453067779541016e+00 -2.346100807189941406e+00 9.763600230216979980e-01
-2.430419921875000000e-01 5.496249675750732422e+00 -2.346100807189941406e+00 9.763600230216979980e-01
-3.313281238079071045e-01 5.491640567779541016e+00 -2.346100807189941406e+00 9.763600230216979980e-01
-4.195312261581420898e-01 5.485605239868164062e+00 -2.346100807189941406e+00 9.763600230216979980e-01
-5.076171755790710449e-01 5.478154182434082031e+00 -2.346100807189941406e+00 9.763600230216979980e-01
-6.833935379981994629e-01 5.459013462066650391e+00 -2.346100807189941406e+00 9.763600230216979980e-01
-1.119335889816284180e+00 5.386542797088623047e+00 -2.346100807189941406e+00 9.763600230216979980e-01
-1.205742120742797852e+00 5.367870807647705078e+00 -2.346100807189941406e+00 9.763600230216979980e-01
-1.377612233161926270e+00 5.326347351074218750e+00 -2.346100807189941406e+00 9.763600230216979980e-01
-1.463017582893371582e+00 5.303534984588623047e+00 -2.346100807189941406e+00 9.763600230216979980e-01
-1.548056602478027344e+00 5.279335975646972656e+00 -2.346100807189941406e+00 9.763600230216979980e-01
-1.632690429687500000e+00 5.253769397735595703e+00 -2.346100807189941406e+00 9.763600230216979980e-01
-1.966787099838256836e+00 5.138046741485595703e+00 -2.346100807189941406e+00 9.763600230216979980e-01
-2.212104558944702148e+00 5.037304401397705078e+00 -2.346100807189941406e+00 9.763600230216979980e-01
-2.372827053070068359e+00 4.963623046875000000e+00 -2.346100807189941406e+00 9.763600230216979980e-01
-2.452275276184082031e+00 4.924853324890136719e+00 -2.346100807189941406e+00 9.763600230216979980e-01
-2.531098604202270508e+00 4.884804725646972656e+00 -2.346100807189941406e+00 9.763600230216979980e-01
-2.609272480010986328e+00 4.843505859375000000e+00 -2.346100807189941406e+00 9.763600230216979980e-01
-2.763554573059082031e+00 4.757158279418945312e+00 -2.346100807189941406e+00 9.763600230216979980e-01
-2.839648485183715820e+00 4.712128639221191406e+00 -2.346100807189941406e+00 9.763600230216979980e-01
-2.914999961853027344e+00 4.665888786315917969e+00 -2.346100807189941406e+00 9.763600230216979980e-01
-2.989594697952270508e+00 4.618456840515136719e+00 -2.346100807189941406e+00 9.763600230216979980e-01
-3.063422679901123047e+00 4.569833755493164062e+00 -2.346100807189941406e+00 9.763599634170532227e-01
-3.136459827423095703e+00 4.520009517669677734e+00 -2.346100807189941406e+00 9.763600230216979980e-01
-3.350629806518554688e+00 4.363613128662109375e+00 -2.346100807189941406e+00 9.763600230216979980e-01
-3.420322179794311523e+00 4.309208869934082031e+00 -2.346100807189941406e+00 9.763600230216979980e-01
-3.557021379470825195e+00 4.197070121765136719e+00 -2.346100807189941406e+00 9.763600230216979980e-01
-3.624008655548095703e+00 4.139365196228027344e+00 -2.346100807189941406e+00 9.763600230216979980e-01
-3.755146503448486328e+00 4.020761489868164062e+00 -2.346100807189941406e+00 9.763600826263427734e-01
-3.944545745849609375e+00 3.835146427154541016e+00 -2.346100807189941406e+00 9.763600230216979980e-01
-4.005663871765136719e+00 3.771269559860229492e+00 -2.346100807189941406e+00 9.763600230216979980e-01
-4.065742015838623047e+00 3.706415891647338867e+00 -2.346100807189941406e+00 9.763600230216979980e-01
-4.124780178070068359e+00 3.640615224838256836e+00 -2.346100807189941406e+00 9.763600230216979980e-01
-4.182748794555664062e+00 3.573857307434082031e+00 -2.346100807189941406e+00 9.763600230216979980e-01
-4.350112438201904297e+00 3.368134737014770508e+00 -2.346100807189941406e+00 9.763600230216979980e-01
-4.507363319396972656e+00 3.154599428176879883e+00 -2.346100807189941406e+00 9.763600230216979980e-01
-4.557475566864013672e+00 3.081767559051513672e+00 -2.346100807189941406e+00 9.763600230216979980e-01
-4.654150485992431641e+00 2.933720588684082031e+00 -2.346100807189941406e+00 9.763600230216979980e-01
-4.700693130493164062e+00 2.858544826507568359e+00 -2.346100807189941406e+00 9.763600230216979980e-01
-4.790122032165527344e+00 2.706044912338256836e+00 -2.346100807189941406e+00 9.763599634170532227e-01
-4.832983493804931641e+00 2.628701210021972656e+00 -2.346100807189941406e+00 9.763600230216979980e-01
-4.874599456787109375e+00 2.550712823867797852e+00 -2.346100807189941406e+00 9.763600230216979980e-01
-4.914956092834472656e+00 2.472050666809082031e+00 -2.346100807189941406e+00 9.763600230216979980e-01
-4.991850376129150391e+00 2.312831878662109375e+00 -2.346100807189941406e+00 9.763600230216979980e-01
-5.028373718261718750e+00 2.232324123382568359e+00 -2.346100807189941406e+00 9.763600230216979980e-01
-5.097512245178222656e+00 2.069589853286743164e+00 -2.346100807189941406e+00 9.763600230216979980e-01
-1.437709927558898926e+00 5.044628977775573730e-01 -6.497402787208557129e-01 9.933962821960449219e-01
-1.379584908485412598e+00 4.593164026737213135e-01 -6.200564503669738770e-01 9.936970472335815430e-01
-1.262094736099243164e+00 3.755956888198852539e-01 -5.615305900573730469e-01 9.942902326583862305e-01
-1.167656183242797852e+00 3.070117235183715820e-01 -5.148585438728332520e-01 9.947636127471923828e-01
-1.169140577316284180e+00 2.874023318290710449e-01 -5.134075880050659180e-01 9.947782754898071289e-01
-1.178090810775756836e+00 2.695996165275573730e-01 -5.153712630271911621e-01 9.947584271430969238e-01
-1.187280297279357910e+00 2.516992092132568359e-01 -5.175536870956420898e-01 9.947362542152404785e-01
-1.205605387687683105e+00 2.153613269329071045e-01 -5.222517251968383789e-01 9.946885704994201660e-01
-1.212714791297912598e+00 1.965722590684890747e-01 -5.238971114158630371e-01 9.946718811988830566e-01
-1.222700119018554688e+00 1.580664068460464478e-01 -5.257438421249389648e-01 9.946531653404235840e-01
-1.226874947547912598e+00 1.186621040105819702e-01 -5.256255865097045898e-01 9.946543574333190918e-01
-1.226752877235412598e+00 9.877929836511611938e-02 -5.248278975486755371e-01 9.946624636650085449e-01
-1.225185513496398926e+00 7.886718213558197021e-02 -5.235459804534912109e-01 9.946754574775695801e-01
-1.217734336853027344e+00 3.916015475988388062e-02 -5.195544362068176270e-01 9.947159290313720703e-01
-1.110551714897155762e+00 -1.785156130790710449e-02 -4.882592558860778809e-01 9.951586723327636719e-01
-1.113310575485229492e+00 -7.166992127895355225e-02 -4.904208183288574219e-01 9.951372742652893066e-01
-1.109067320823669434e+00 -1.252831965684890747e-01 -4.906454384326934814e-01 9.951350688934326172e-01
-1.106542944908142090e+00 -1.430468708276748657e-01 -4.904804825782775879e-01 9.951366782188415527e-01
-1.103486299514770508e+00 -1.607226580381393433e-01 -4.902076721191406250e-01 9.951393604278564453e-01
-1.083105444908142090e+00 -2.296191304922103882e-01 -4.867094457149505615e-01 9.951739311218261719e-01
-1.076030254364013672e+00 -2.462597638368606567e-01 -4.852465689182281494e-01 9.951884150505065918e-01
-1.068198204040527344e+00 -2.625878751277923584e-01 -4.835571050643920898e-01 9.952051639556884766e-01
-1.068251967430114746e+00 -3.366894423961639404e-01 -4.923714995384216309e-01 9.951179623603820801e-01
-1.072153329849243164e+00 -3.569628894329071045e-01 -4.967507719993591309e-01 9.950746297836303711e-01
-1.075165987014770508e+00 -3.772558569908142090e-01 -5.008888244628906250e-01 9.950336813926696777e-01
-1.078374028205871582e+00 -4.177636504173278809e-01 -5.083795189857482910e-01 9.949596524238586426e-01
-1.078530192375183105e+00 -4.378808438777923584e-01 -5.117043852806091309e-01 9.949267506599426270e-01
-1.077690362930297852e+00 -4.578417837619781494e-01 -5.147300362586975098e-01 9.948968291282653809e-01
-1.076547861099243164e+00 -4.779296815395355225e-01 -5.177853107452392578e-01 9.948666095733642578e-01
-1.074746012687683105e+00 -4.979492127895355225e-01 -5.206994414329528809e-01 9.948378205299377441e-01
-1.068271517753601074e+00 -5.373046994209289551e-01 -5.256615877151489258e-01 9.947887063026428223e-01
-1.063593745231628418e+00 -5.565429329872131348e-01 -5.276913046836853027e-01 9.947686791419982910e-01
-4.603940486907958984e+00 -2.699365139007568359e+00 -2.346100807189941406e+00 9.769504070281982422e-01
-4.421044826507568359e+00 -2.989501953125000000e+00 -2.346100807189941406e+00 9.769504666328430176e-01
-4.372436523437500000e+00 -3.060165882110595703e+00 -2.346100807189941406e+00 9.769504666328430176e-01
-4.322700023651123047e+00 -3.130019426345825195e+00 -2.346100807189941406e+00 9.769504666328430176e-01
-4.271845817565917969e+00 -3.199081897735595703e+00 -2.346100807189941406e+00 9.769504666328430176e-01
-4.219897270202636719e+00 -3.267314434051513672e+00 -2.346100807189941406e+00 9.769504070281982422e-01
-4.166845798492431641e+00 -3.334697246551513672e+00 -2.346100807189941406e+00 9.769504666328430176e-01
-4.057538986206054688e+00 -3.466884613037109375e+00 -2.346100807189941406e+00 9.769504070281982422e-01
-3.944037914276123047e+00 -3.595468759536743164e+00 -2.346100807189941406e+00 9.769504666328430176e-01
-3.826469659805297852e+00 -3.720341682434082031e+00 -2.346100807189941406e+00 9.769504666328430176e-01
-3.766191244125366211e+00 -3.781347513198852539e+00 -2.346100807189941406e+00 9.769504666328430176e-01
-3.704941272735595703e+00 -3.841376781463623047e+00 -2.346100807189941406e+00 9.769504666328430176e-01
-3.579599618911743164e+00 -3.958456993103027344e+00 -2.346100807189941406e+00 9.769504070281982422e-01
-3.250331878662109375e+00 -4.232978343963623047e+00 -2.346100807189941406e+00 9.769504666328430176e-01
-3.181894540786743164e+00 -4.284657955169677734e+00 -2.346100807189941406e+00 9.769504666328430176e-01
-3.042563438415527344e+00 -4.384706974029541016e+00 -2.346100807189941406e+00 9.769504070281982422e-01
-2.971718788146972656e+00 -4.433027267456054688e+00 -2.346100807189941406e+00 9.769504070281982422e-01
-2.900102376937866211e+00 -4.480205059051513672e+00 -2.346100807189941406e+00 9.769504666328430176e-01
-2.827734231948852539e+00 -4.526230335235595703e+00 -2.346100807189941406e+00 9.769504070281982422e-01
-2.680825233459472656e+00 -4.614755630493164062e+00 -2.346100807189941406e+00 9.769504666328430176e-01
-2.531157255172729492e+00 -4.698525428771972656e+00 -2.346100807189941406e+00 9.769504070281982422e-01
-2.455327033996582031e+00 -4.738584041595458984e+00 -2.346100807189941406e+00 9.769504666328430176e-01
-2.378862142562866211e+00 -4.777421951293945312e+00 -2.346100807189941406e+00 9.769504666328430176e-01
-2.301787137985229492e+00 -4.815029144287109375e+00 -2.346100807189941406e+00 9.769504666328430176e-01
-2.224125862121582031e+00 -4.851396560668945312e+00 -2.346100807189941406e+00 9.769504666328430176e-01
-2.145874023437500000e+00 -4.886513710021972656e+00 -2.346100807189941406e+00 9.769504666328430176e-01
-1.987753868103027344e+00 -4.952939510345458984e+00 -2.346100807189941406e+00 9.769504666328430176e-01
-1.827573180198669434e+00 -5.014257907867431641e+00 -2.346100807189941406e+00 9.769504666328430176e-01
-1.746757745742797852e+00 -5.042988300323486328e+00 -2.346100807189941406e+00 9.769504070281982422e-01
-1.665502905845642090e+00 -5.070400238037109375e+00 -2.346100807189941406e+00 9.769504070281982422e-01
-1.583808541297912598e+00 -5.096503734588623047e+00 -2.346100807189941406e+00 9.769504666328430176e-01
-1.501708984375000000e+00 -5.121298789978027344e+00 -2.346100807189941406e+00 9.769504666328430176e-01
-1.419223546981811523e+00 -5.144765377044677734e+00 -2.346100807189941406e+00 9.769504666328430176e-01
-1.336372017860412598e+00 -5.166913986206054688e+00 -2.346100807189941406e+00 9.769504070281982422e-01
-1.169648408889770508e+00 -5.207187175750732422e+00 -2.346100807189941406e+00 9.769504070281982422e-01
-1.085830092430114746e+00 -5.225312232971191406e+00 -2.346100807189941406e+00 9.769504070281982422e-01
-9.173535108566284180e-01 -5.257499694824218750e+00 -2.346100807189941406e+00 9.769504070281982422e-01
-8.327538967132568359e-01 -5.271562576293945312e+00 -2.346100807189941406e+00 9.769504070281982422e-01
-6.629296541213989258e-01 -5.295605182647705078e+00 -2.346100807189941406e+00 9.769504070281982422e-01
-5.777539014816284180e-01 -5.305575847625732422e+00 -2.346100807189941406e+00 9.769504070281982422e-01
-4.069677591323852539e-01 -5.321406364440917969e+00 -2.346100807189941406e+00 9.769504070281982422e-01
-3.214013576507568359e-01 -5.327246189117431641e+00 -2.346100807189941406e+00 9.769504070281982422e-01
-1.500585973262786865e-01 -5.334814548492431641e+00 -2.346100807189941406e+00 9.769504666328430176e-01
-6.431151926517486572e-02 -5.336543083190917969e+00 -2.346100807189941406e+00 9.769504666328430176e-01
1.929296851158142090e-01 -5.333446979522705078e+00 -2.346100807189941406e+00 9.769504070281982422e-01
2.786083817481994629e-01 -5.329668045043945312e+00 -2.346100807189941406e+00 9.769504070281982422e-01
3.642138540744781494e-01 -5.324501991271972656e+00 -2.346100807189941406e+00 9.769504070281982422e-01
6.203759908676147461e-01 -5.300761699676513672e+00 -2.346100807189941406e+00 9.769504070281982422e-01
7.054784893989562988e-01 -5.290107250213623047e+00 -2.346100807189941406e+00 9.769504070281982422e-01
8.750976324081420898e-01 -5.264707088470458984e+00 -2.346100807189941406e+00 9.769504070281982422e-01
9.595849514007568359e-01 -5.249960899353027344e+00 -2.346100807189941406e+00 9.769504070281982422e-01
1.043818354606628418e+00 -5.233876705169677734e+00 -2.346100807189941406e+00 9.769503474235534668e-01
1.294824242591857910e+00 -5.177490234375000000e+00 -2.346100807189941406e+00 9.769504070281982422e-01
1.377861261367797852e+00 -5.156005859375000000e+00 -2.346100807189941406e+00 9.769504070281982422e-01
1.460522413253784180e+00 -5.133203029632568359e+00 -2.346100807189941406e+00 9.769504070281982422e-01
1.542822241783142090e+00 -5.109052658081054688e+00 -2.346100807189941406e+00 9.769504666328430176e-01
1.867812514305114746e+00 -4.999423503875732422e+00 -2.346100807189941406e+00 9.769504070281982422e-01
2.340419769287109375e+00 -4.796386718750000000e+00 -2.346100807189941406e+00 9.769504070281982422e-01
2.417192220687866211e+00 -4.758173942565917969e+00 -2.346100807189941406e+00 9.769503474235534668e-01
2.568842649459838867e+00 -4.678027153015136719e+00 -2.346100807189941406e+00 9.769504070281982422e-01
2.643671751022338867e+00 -4.636152267456054688e+00 -2.346100807189941406e+00 9.769504070281982422e-01
2.717832088470458984e+00 -4.593066215515136719e+00 -2.346100807189941406e+00 9.769504070281982422e-01
2.864023447036743164e+00 -4.503368854522705078e+00 -2.346100807189941406e+00 9.769504070281982422e-01
3.216220617294311523e+00 -4.258964538574218750e+00 -2.346100807189941406e+00 9.769504070281982422e-01
3.284243106842041016e+00 -4.206728458404541016e+00 -2.346100807189941406e+00 9.769504666328430176e-01
3.547675609588623047e+00 -3.987080097198486328e+00 -2.346100807189941406e+00 9.769504666328430176e-01
3.611289024353027344e+00 -3.929560422897338867e+00 -2.346100807189941406e+00 9.769504070281982422e-01
3.673959970474243164e+00 -3.871035099029541016e+00 -2.346100807189941406e+00 9.769504070281982422e-01
3.856235265731811523e+00 -3.689482450485229492e+00 -2.346100807189941406e+00 9.769504666328430176e-01
3.915024280548095703e+00 -3.627040863037109375e+00 -2.346100807189941406e+00 9.769504070281982422e-01
3.972797870635986328e+00 -3.563671827316284180e+00 -2.346100807189941406e+00 9.769504070281982422e-01
4.029555797576904297e+00 -3.499365091323852539e+00 -2.346100807189941406e+00 9.769504070281982422e-01
4.085268497467041016e+00 -3.434169769287109375e+00 -2.346100807189941406e+00 9.769504070281982422e-01
4.139921665191650391e+00 -3.368076086044311523e+00 -2.346100807189941406e+00 9.769504070281982422e-01
9.290527105331420898e-01 -7.074609398841857910e-01 -5.133383274078369141e-01 9.949105978012084961e-01
9.584618806838989258e-01 -7.058203220367431641e-01 -5.232545137405395508e-01 9.948125481605529785e-01
1.016899347305297852e+00 -6.995995640754699707e-01 -5.425944328308105469e-01 9.946212768554687500e-01
1.045698165893554688e+00 -6.949218511581420898e-01 -5.519335865974426270e-01 9.945290088653564453e-01
1.131977558135986328e+00 -6.759765744209289551e-01 -5.795884728431701660e-01 9.942556619644165039e-01
1.164941430091857910e+00 -6.704980134963989258e-01 -5.908694267272949219e-01 9.941442012786865234e-01
4.786948204040527344e+00 -2.359658241271972656e+00 -2.346100807189941406e+00 9.769504070281982422e-01
4.824247837066650391e+00 -2.282441377639770508e+00 -2.346100807189941406e+00 9.769504070281982422e-01
1.882260680198669434e+00 -8.537988066673278809e-01 -9.085783362388610840e-01 9.910097122192382812e-01
1.811362266540527344e+00 -7.867870926856994629e-01 -8.681408762931823730e-01 9.914081096649169922e-01
1.802788019180297852e+00 -7.488671541213989258e-01 -8.581522703170776367e-01 9.915065169334411621e-01
1.838290929794311523e+00 -6.616601347923278809e-01 -8.588593602180480957e-01 9.914996027946472168e-01
1.858720660209655762e+00 -6.022753715515136719e-01 -8.589123487472534180e-01 9.914990663528442383e-01
1.897734284400939941e+00 -4.503613114356994629e-01 -8.574061393737792969e-01 9.915139079093933105e-01
1.903281211853027344e+00 -4.194921851158142090e-01 -8.567571640014648438e-01 9.915202856063842773e-01
1.908017516136169434e+00 -3.885058462619781494e-01 -8.559677004814147949e-01 9.915280938148498535e-01
1.911259770393371582e+00 -3.572851419448852539e-01 -8.547356724739074707e-01 9.915401935577392578e-01
1.913813471794128418e+00 -3.260253965854644775e-01 -8.534252643585205078e-01 9.915531277656555176e-01
1.915688395500183105e+00 -2.947461009025573730e-01 -8.520385622978210449e-01 9.915667772293090820e-01
1.916879892349243164e+00 -2.634765505790710449e-01 -8.505759835243225098e-01 9.915812015533447266e-01
1.917397379875183105e+00 -2.322167903184890747e-01 -8.490389585494995117e-01 9.915963411331176758e-01
1.916406154632568359e+00 -1.698242127895355225e-01 -8.457465767860412598e-01 9.916288256645202637e-01
1.912753820419311523e+00 -1.076953113079071045e-01 -8.421719074249267578e-01 9.916640520095825195e-01
1.760463833808898926e+00 -1.414062455296516418e-02 -7.739189267158508301e-01 9.923370480537414551e-01
1.760483384132385254e+00 1.415039040148258209e-02 -7.739275693893432617e-01 9.923369288444519043e-01
1.912758708000183105e+00 1.076953113079071045e-01 -8.421725034713745117e-01 9.916640520095825195e-01
1.916406154632568359e+00 1.698242127895355225e-01 -8.457470536231994629e-01 9.916288256645202637e-01
1.917241215705871582e+00 2.009960860013961792e-01 -8.474293351173400879e-01 9.916121959686279297e-01
1.916879892349243164e+00 2.634668052196502686e-01 -8.505762815475463867e-01 9.915812015533447266e-01
1.915688395500183105e+00 2.947363257408142090e-01 -8.520390391349792480e-01 9.915667772293090820e-01
1.911259770393371582e+00 3.572753965854644775e-01 -8.547360301017761230e-01 9.915401935577392578e-01
1.908022403717041016e+00 3.885058462619781494e-01 -8.559684753417968750e-01 9.915280342102050781e-01
1.897729396820068359e+00 4.503710865974426270e-01 -8.574066162109375000e-01 9.915139079093933105e-01
1.891508698463439941e+00 4.811230301856994629e-01 -8.579759001731872559e-01 9.915083050727844238e-01
1.884384751319885254e+00 5.116796493530273438e-01 -8.583639264106750488e-01 9.915044307708740234e-01
1.876498937606811523e+00 5.420703291893005371e-01 -8.586304783821105957e-01 9.915018081665039062e-01
1.858720660209655762e+00 6.022753715515136719e-01 -8.589127659797668457e-01 9.914990663528442383e-01
1.848837852478027344e+00 6.320800781250000000e-01 -8.589280247688293457e-01 9.914988875389099121e-01
1.827104449272155762e+00 6.909960508346557617e-01 -8.587077260017395020e-01 9.915010333061218262e-01
1.815263628959655762e+00 7.200683355331420898e-01 -8.584719896316528320e-01 9.915034174919128418e-01
1.802792906761169434e+00 7.488671541213989258e-01 -8.581527471542358398e-01 9.915065169334411621e-01
1.882265567779541016e+00 8.537890315055847168e-01 -9.085816740989685059e-01 9.910097122192382812e-01
4.824247837066650391e+00 2.282421827316284180e+00 -2.346100807189941406e+00 9.769504666328430176e-01
4.786952972412109375e+00 2.359658241271972656e+00 -2.346100807189941406e+00 9.769504070281982422e-01
4.748413085937500000e+00 2.436269521713256836e+00 -2.346100807189941406e+00 9.769504666328430176e-01
4.708652019500732422e+00 2.512265682220458984e+00 -2.346100807189941406e+00 9.769504070281982422e-01
1.197387695312500000e+00 6.637890338897705078e-01 -6.018389463424682617e-01 9.940357804298400879e-01
1.164946317672729492e+00 6.705077886581420898e-01 -5.908735394477844238e-01 9.941441416740417480e-01
1.101904273033142090e+00 6.822656393051147461e-01 -5.697278976440429688e-01 9.943531155586242676e-01
1.074086904525756836e+00 6.891601681709289551e-01 -5.609964132308959961e-01 9.944394230842590332e-01
1.045707941055297852e+00 6.949218511581420898e-01 -5.519384741783142090e-01 9.945289492607116699e-01
1.016904234886169434e+00 6.995995640754699707e-01 -5.425990223884582520e-01 9.946212768554687500e-01
9.877880811691284180e-01 7.032226324081420898e-01 -5.330258011817932129e-01 9.947159290313720703e-01
9.584716558456420898e-01 7.058203220367431641e-01 -5.232586264610290527e-01 9.948124885559082031e-01
9.290575981140136719e-01 7.074707150459289551e-01 -5.133421421051025391e-01 9.949105381965637207e-01
4.193515300750732422e+00 3.301113128662109375e+00 -2.346100807189941406e+00 9.769504070281982422e-01
4.139926433563232422e+00 3.368066310882568359e+00 -2.346100807189941406e+00 9.769504070281982422e-01
4.085263729095458984e+00 3.434140443801879883e+00 -2.346100807189941406e+00 9.769504666328430176e-01
4.029550552368164062e+00 3.499365091323852539e+00 -2.346100807189941406e+00 9.769504666328430176e-01
3.972802639007568359e+00 3.563662052154541016e+00 -2.346100807189941406e+00 9.769504070281982422e-01
3.915034055709838867e+00 3.627040863037109375e+00 -2.346100807189941406e+00 9.769504070281982422e-01
3.856245040893554688e+00 3.689472675323486328e+00 -2.346100807189941406e+00 9.769504666328430176e-01
3.796454906463623047e+00 3.750976562500000000e+00 -2.346100807189941406e+00 9.769504070281982422e-01
3.611289024353027344e+00 3.929560422897338867e+00 -2.346100807189941406e+00 9.769504070281982422e-01
3.351411104202270508e+00 4.153408050537109375e+00 -2.346100807189941406e+00 9.769504666328430176e-01
3.284247875213623047e+00 4.206728458404541016e+00 -2.346100807189941406e+00 9.769504070281982422e-01
3.216225624084472656e+00 4.258964538574218750e+00 -2.346100807189941406e+00 9.769504070281982422e-01
3.077704906463623047e+00 4.360107421875000000e+00 -2.346100807189941406e+00 9.769504666328430176e-01
2.864023447036743164e+00 4.503359317779541016e+00 -2.346100807189941406e+00 9.769504070281982422e-01
2.791279315948486328e+00 4.548798561096191406e+00 -2.346100807189941406e+00 9.769504666328430176e-01
2.717832088470458984e+00 4.593056678771972656e+00 -2.346100807189941406e+00 9.769504666328430176e-01
2.643681526184082031e+00 4.636152267456054688e+00 -2.346100807189941406e+00 9.769504070281982422e-01
2.493330001831054688e+00 4.718700885772705078e+00 -2.346100807189941406e+00 9.769504666328430176e-01
2.417182445526123047e+00 4.758163928985595703e+00 -2.346100807189941406e+00 9.769504070281982422e-01
2.340415000915527344e+00 4.796386718750000000e+00 -2.346100807189941406e+00 9.769504070281982422e-01
2.263041973114013672e+00 4.833369255065917969e+00 -2.346100807189941406e+00 9.769504666328430176e-01
2.185078144073486328e+00 4.869101524353027344e+00 -2.346100807189941406e+00 9.769504666328430176e-01
2.027495145797729492e+00 4.936816215515136719e+00 -2.346100807189941406e+00 9.769504070281982422e-01
1.947905182838439941e+00 4.968759536743164062e+00 -2.346100807189941406e+00 9.769504070281982422e-01
1.706196308135986328e+00 5.056845664978027344e+00 -2.346100807189941406e+00 9.769504666328430176e-01
1.624721646308898926e+00 5.083622932434082031e+00 -2.346100807189941406e+00 9.769504070281982422e-01
1.460522413253784180e+00 5.133203029632568359e+00 -2.346100807189941406e+00 9.769504070281982422e-01
1.211455106735229492e+00 5.197617053985595703e+00 -2.346100807189941406e+00 9.769504070281982422e-01
1.127783179283142090e+00 5.216406345367431641e+00 -2.346100807189941406e+00 9.769504666328430176e-01
1.043818354606628418e+00 5.233847618103027344e+00 -2.346100807189941406e+00 9.769504666328430176e-01
9.595800638198852539e-01 5.249950885772705078e+00 -2.346100807189941406e+00 9.769504666328430176e-01
8.750927448272705078e-01 5.264697074890136719e+00 -2.346100807189941406e+00 9.769504666328430176e-01
7.903857231140136719e-01 5.278066158294677734e+00 -2.346100807189941406e+00 9.769504666328430176e-01
3.642089664936065674e-01 5.324482440948486328e+00 -2.346100807189941406e+00 9.769504666328430176e-01
1.929296851158142090e-01 5.333437442779541016e+00 -2.346100807189941406e+00 9.769504666328430176e-01
2.141113206744194031e-02 5.336894512176513672e+00 -2.346100807189941406e+00 9.769504070281982422e-01
-3.214160203933715820e-01 5.327236175537109375e+00 -2.346100807189941406e+00 9.769504666328430176e-01
-4.069726467132568359e-01 5.321386814117431641e+00 -2.346100807189941406e+00 9.769504666328430176e-01
-5.777587890625000000e-01 5.305556297302246094e+00 -2.346100807189941406e+00 9.769504666328430176e-01
-8.327587842941284180e-01 5.271562576293945312e+00 -2.346100807189941406e+00 9.769504070281982422e-01
-1.001728534698486328e+00 5.242079734802246094e+00 -2.346100807189941406e+00 9.769504070281982422e-01
-1.085830092430114746e+00 5.225302696228027344e+00 -2.346100807189941406e+00 9.769504666328430176e-01
-1.169658184051513672e+00 5.207187175750732422e+00 -2.346100807189941406e+00 9.769504070281982422e-01
-1.583808541297912598e+00 5.096503734588623047e+00 -2.346100807189941406e+00 9.769504666328430176e-01
-1.907910108566284180e+00 4.984257698059082031e+00 -2.346100807189941406e+00 9.769504070281982422e-01
-1.987753868103027344e+00 4.952949047088623047e+00 -2.346100807189941406e+00 9.769504070281982422e-01
-2.067085027694702148e+00 4.920361042022705078e+00 -2.346100807189941406e+00 9.769504666328430176e-01
-2.455332040786743164e+00 4.738574028015136719e+00 -2.346100807189941406e+00 9.769504666328430176e-01
-2.531157255172729492e+00 4.698505878448486328e+00 -2.346100807189941406e+00 9.769504666328430176e-01
-2.827734231948852539e+00 4.526230335235595703e+00 -2.346100807189941406e+00 9.769504070281982422e-01
-2.971713781356811523e+00 4.433017253875732422e+00 -2.346100807189941406e+00 9.769504666328430176e-01
-3.042568206787109375e+00 4.384706974029541016e+00 -2.346100807189941406e+00 9.769504070281982422e-01
-3.112636566162109375e+00 4.335244178771972656e+00 -2.346100807189941406e+00 9.769504070281982422e-01
-3.181889533996582031e+00 4.284667968750000000e+00 -2.346100807189941406e+00 9.769504666328430176e-01
-3.250331878662109375e+00 4.232988357543945312e+00 -2.346100807189941406e+00 9.769504070281982422e-01
-3.317929506301879883e+00 4.180214881896972656e+00 -2.346100807189941406e+00 9.769504070281982422e-01
-3.384672880172729492e+00 4.126357555389404297e+00 -2.346100807189941406e+00 9.769504666328430176e-01
-3.450541973114013672e+00 4.071425914764404297e+00 -2.346100807189941406e+00 9.769504666328430176e-01
-3.642734289169311523e+00 3.900429487228393555e+00 -2.346100807189941406e+00 9.769504070281982422e-01
-3.826464653015136719e+00 3.720341682434082031e+00 -2.346100807189941406e+00 9.769504666328430176e-01
-3.885746955871582031e+00 3.658378839492797852e+00 -2.346100807189941406e+00 9.769504666328430176e-01
-3.944037914276123047e+00 3.595458984375000000e+00 -2.346100807189941406e+00 9.769504666328430176e-01
-4.057534217834472656e+00 3.466865062713623047e+00 -2.346100807189941406e+00 9.769504666328430176e-01
-4.112714767456054688e+00 3.401220560073852539e+00 -2.346100807189941406e+00 9.769504666328430176e-01
-4.322700023651123047e+00 3.130029201507568359e+00 -2.346100807189941406e+00 9.769504666328430176e-01
-4.421049594879150391e+00 2.989511728286743164e+00 -2.346100807189941406e+00 9.769504070281982422e-01
-4.514823913574218750e+00 2.845908164978027344e+00 -2.346100807189941406e+00 9.769504666328430176e-01
-4.559975624084472656e+00 2.772978544235229492e+00 -2.346100807189941406e+00 9.769504666328430176e-01
-4.603940486907958984e+00 2.699355363845825195e+00 -2.346100807189941406e+00 9.769504666328430176e-01
-1.051337838172912598e+00 5.939159989356994629e-01 -5.308108329772949219e-01 9.947378039360046387e-01
-1.068281173706054688e+00 5.373046994209289551e-01 -5.256654024124145508e-01 9.947887063026428223e-01
-1.071992158889770508e+00 5.177636742591857910e-01 -5.233318805694580078e-01 9.948117733001708984e-01
-1.074750900268554688e+00 4.979492127895355225e-01 -5.207034349441528320e-01 9.948377609252929688e-01
-1.077700138092041016e+00 4.578515589237213135e-01 -5.147335529327392578e-01 9.948967695236206055e-01
-1.078539967536926270e+00 4.378808438777923584e-01 -5.117077231407165527e-01 9.949267506599426270e-01
-1.078383803367614746e+00 4.177636504173278809e-01 -5.083836317062377930e-01 9.949595928192138672e-01
-1.077255845069885254e+00 3.975390493869781494e-01 -5.047744512557983398e-01 9.949952960014343262e-01
-1.075170874595642090e+00 3.772558569908142090e-01 -5.008927583694458008e-01 9.950336813926696777e-01
-1.068261742591857910e+00 3.366894423961639404e-01 -4.923751652240753174e-01 9.951179027557373047e-01
-1.068207979202270508e+00 2.625878751277923584e-01 -4.835581779479980469e-01 9.952051043510437012e-01
-1.083105444908142090e+00 2.296093702316284180e-01 -4.867097437381744385e-01 9.951739311218261719e-01
-1.089399337768554688e+00 2.127246111631393433e-01 -4.879408180713653564e-01 9.951617717742919922e-01
-1.094907164573669434e+00 1.955859363079071045e-01 -4.889366030693054199e-01 9.951519370079040527e-01
-1.099604487419128418e+00 1.782421767711639404e-01 -4.896928369998931885e-01 9.951444864273071289e-01
-1.103491187095642090e+00 1.607226580381393433e-01 -4.902082681655883789e-01 9.951393604278564453e-01
-1.106542944908142090e+00 1.430468708276748657e-01 -4.904814064502716064e-01 9.951366782188415527e-01
-1.111264586448669434e+00 1.074804663658142090e-01 -4.907881021499633789e-01 9.951336383819580078e-01
-1.024765610694885254e+00 0.000000000000000000e+00 -4.641004800796508789e-01 9.955102801322937012e-01
-1.029062509536743164e+00 -6.624023616313934326e-02 -4.670101702213287354e-01 9.954822063446044922e-01
-1.028427720069885254e+00 -8.281249552965164185e-02 -4.672668278217315674e-01 9.954797029495239258e-01
-1.027109384536743164e+00 -9.933593869209289551e-02 -4.673326015472412109e-01 9.954790472984313965e-01
-1.010351538658142090e+00 -1.804785132408142090e-01 -4.648159742355346680e-01 9.955033659934997559e-01
-1.005019545555114746e+00 -1.962402313947677612e-01 -4.637527465820312500e-01 9.955136179924011230e-01
-9.870849251747131348e-01 -2.426464855670928955e-01 -4.603445231914520264e-01 9.955465197563171387e-01
-9.731835722923278809e-01 -3.067382872104644775e-01 -4.621137976646423340e-01 9.955294728279113770e-01
-9.760156273841857910e-01 -3.249511718750000000e-01 -4.658773839473724365e-01 9.954931139945983887e-01
-9.805810451507568359e-01 -3.981152176856994629e-01 -4.792960882186889648e-01 9.953635931015014648e-01
-9.699707031250000000e-01 -4.878515601158142090e-01 -4.917173683643341064e-01 9.952437281608581543e-01
-9.604198932647705078e-01 -5.223827958106994629e-01 -4.951353371143341064e-01 9.952107667922973633e-01
-9.478222727775573730e-01 -5.557226538658142090e-01 -4.975961148738861084e-01 9.951870441436767578e-01
-9.404003620147705078e-01 -5.718652009963989258e-01 -4.984573125839233398e-01 9.951786994934082031e-01
-9.306640625000000000e-01 -5.866405963897705078e-01 -4.982307255268096924e-01 9.951809048652648926e-01
-4.291327953338623047e+00 -2.901796817779541016e+00 -2.346100807189941406e+00 9.775094389915466309e-01
-4.195868968963623047e+00 -3.038193225860595703e+00 -2.346100807189941406e+00 9.775094389915466309e-01
-4.146513462066650391e+00 -3.105224609375000000e+00 -2.346100807189941406e+00 9.775093793869018555e-01
-3.938481330871582031e+00 -3.365156173706054688e+00 -2.346100807189941406e+00 9.775094389915466309e-01
-3.655683517456054688e+00 -3.670400381088256836e+00 -2.346100807189941406e+00 9.775094389915466309e-01
-3.535859346389770508e+00 -3.785976409912109375e+00 -2.346100807189941406e+00 9.775094389915466309e-01
-3.412373065948486328e+00 -3.897646427154541016e+00 -2.346100807189941406e+00 9.775094389915466309e-01
-3.349301576614379883e+00 -3.951962709426879883e+00 -2.346100807189941406e+00 9.775094389915466309e-01
-3.220581054687500000e+00 -4.057558536529541016e+00 -2.346100807189941406e+00 9.775094389915466309e-01
-3.154960870742797852e+00 -4.108788967132568359e+00 -2.346100807189941406e+00 9.775094389915466309e-01
-2.953295946121215820e+00 -4.256034851074218750e+00 -2.346100807189941406e+00 9.775094389915466309e-01
