8.937365722656250000e+01 -2.895992088317871094e+01 -3.904182314872741699e-01 6.867414116859436035e-01
8.954012298583984375e+01 -2.431380844116210938e+01 -3.855724930763244629e-01 6.899520158767700195e-01
8.944107055664062500e+01 -1.671946334838867188e+01 -3.781251311302185059e-01 6.949158310890197754e-01
8.941953277587890625e+01 -1.523262691497802734e+01 -3.769502043724060059e-01 6.957019567489624023e-01
8.946578979492187500e+01 -1.229680633544921875e+01 -3.752845823764801025e-01 6.968181729316711426e-01
8.947394561767578125e+01 -1.083604431152343750e+01 -3.745400905609130859e-01 6.973177790641784668e-01
8.932370758056640625e+01 -6.470556259155273438e+00 -3.721716105937957764e-01 6.989094018936157227e-01
8.933633422851562500e+01 -5.029892444610595703e+00 -3.718363940715789795e-01 6.991329193115234375e-01
8.934895324707031250e+01 -3.591435432434082031e+00 -3.716033995151519775e-01 6.992915868759155273e-01
8.936154937744140625e+01 -2.154433488845825195e+00 -3.714634478092193604e-01 6.993855237960815430e-01
8.938672637939453125e+01 7.181933522224426270e-01 -3.714727759361267090e-01 6.993796825408935547e-01
7.793901824951171875e+01 3.132792949676513672e+00 -3.241494596004486084e-01 7.319738268852233887e-01
7.794605255126953125e+01 4.388574123382568359e+00 -3.244302272796630859e-01 7.317760586738586426e-01
7.796014404296875000e+01 6.908300399780273438e+00 -3.252452015876770020e-01 7.312021851539611816e-01
7.796721649169921875e+01 8.173574447631835938e+00 -3.257806301116943359e-01 7.308254837989807129e-01
7.487807464599609375e+01 9.068368911743164062e+00 -3.134414553642272949e-01 7.395573258399963379e-01
5.858666992187500000e+01 9.980224609375000000e+00 -2.469734102487564087e-01 7.884197235107421875e-01
8.956680297851562500e+01 2.125589752197265625e+01 -3.825483620166778564e-01 6.919642090797424316e-01
7.904590606689453125e+01 5.071821975708007812e+01 -3.902938663959503174e-01 6.868252754211425781e-01
7.634202575683593750e+01 5.073333740234375000e+01 -3.809188902378082275e-01 6.930505037307739258e-01
1.238051700592041016e+01 8.517440795898437500e+00 -6.244888156652450562e-02 9.416607022285461426e-01
1.239062023162841797e+01 8.821054458618164062e+00 -6.320678442716598511e-02 9.409739971160888672e-01
1.239232349395751953e+01 9.125820159912109375e+00 -6.395553797483444214e-02 9.402962327003479004e-01
1.239407157897949219e+01 9.437988281250000000e+00 -6.473876535892486572e-02 9.395874142646789551e-01
6.045785903930664062e+01 5.082216644287109375e+01 -3.282211124897003174e-01 7.291120290756225586e-01
1.047294425964355469e+01 9.702558517456054688e+00 -5.932876467704772949e-02 9.444929957389831543e-01
1.014866638183593750e+01 9.709794998168945312e+00 -5.836822465062141418e-02 9.453666806221008301e-01
9.037954330444335938e+00 8.929677963256835938e+00 -5.279891937971115112e-02 9.504483342170715332e-01
9.084345817565917969e+00 9.268671989440917969e+00 -5.393310263752937317e-02 9.494112133979797363e-01
9.080141067504882812e+00 9.567167282104492188e+00 -5.478484928607940674e-02 9.486067295074462891e-01
4.677612304687500000e+01 5.089870834350585938e+01 -2.872738540172576904e-01 7.584226131439208984e-01
4.529658889770507812e+01 5.090699005126953125e+01 -2.831747233867645264e-01 7.614204883575439453e-01
4.109605407714843750e+01 5.093048858642578125e+01 -2.719589173793792725e-01 7.696844339370727539e-01
3.974831771850585938e+01 5.631048583984375000e+01 -2.864340245723724365e-01 7.590355873107910156e-01
3.977102279663085938e+01 6.037097549438476562e+01 -3.004281520843505859e-01 7.488791942596435547e-01
3.467256927490234375e+01 6.080448913574218750e+01 -2.908798158168792725e-01 7.557954788208007812e-01
3.339331436157226562e+01 6.081163787841796875e+01 -2.883065640926361084e-01 7.576676607131958008e-01
3.213615798950195312e+01 6.081867218017578125e+01 -2.858578562736511230e-01 7.594580650329589844e-01
3.089990234375000000e+01 6.082558441162109375e+01 -2.835165262222290039e-01 7.611692547798156738e-01
2.968336868286132812e+01 6.083240127563476562e+01 -2.812899649143218994e-01 7.628034353256225586e-01
1.766517448425292969e+01 3.772916030883789062e+01 -1.731210350990295410e-01 8.465033769607543945e-01
2.730529212951660156e+01 6.084570312500000000e+01 -2.771469056606292725e-01 7.658499479293823242e-01
2.499388122558593750e+01 6.085863113403320312e+01 -2.734042406082153320e-01 7.686138153076171875e-01
2.386086463928222656e+01 6.086495971679687500e+01 -2.716781497001647949e-01 7.698942422866821289e-01
2.054223060607910156e+01 6.088351440429687500e+01 -2.670248448848724365e-01 7.733491063117980957e-01
1.946022415161132812e+01 6.088956832885742188e+01 -2.656430006027221680e-01 7.743765115737915039e-01
1.838902282714843750e+01 6.089556503295898438e+01 -2.643490433692932129e-01 7.753441333770751953e-01
1.732800292968750000e+01 6.090150070190429688e+01 -2.631332278251647949e-01 7.762529850006103516e-01
1.627641105651855469e+01 6.090738296508789062e+01 -2.619931101799011230e-01 7.771041393280029297e-01
1.523361301422119141e+01 6.091320037841796875e+01 -2.609310746192932129e-01 7.778987884521484375e-01
1.419898414611816406e+01 6.091900253295898438e+01 -2.599447667598724365e-01 7.786375284194946289e-01
1.317187023162841797e+01 6.092474365234375000e+01 -2.590316832065582275e-01 7.793214917182922363e-01
1.113779735565185547e+01 6.093611145019531250e+01 -2.574276626110076904e-01 7.805280089378356934e-01
1.012967777252197266e+01 6.094175720214843750e+01 -2.567294239997863770e-01 7.810518741607666016e-01
8.128457069396972656e+00 6.095294952392578125e+01 -2.555429041385650635e-01 7.819438576698303223e-01
4.170844554901123047e+00 6.097509765625000000e+01 -2.539828419685363770e-01 7.831175923347473145e-01
3.187685489654541016e+00 6.098060226440429688e+01 -2.537631094455718994e-01 7.832858562469482422e-01
2.206025362014770508e+00 6.098609161376953125e+01 -2.536044120788574219e-01 7.834045886993408203e-01
1.225317358970642090e+00 6.099158096313476562e+01 -2.535116374492645264e-01 7.834737896919250488e-01
-7.352197170257568359e-01 6.100253677368164062e+01 -2.535263001918792725e-01 7.834641337394714355e-01
-3.681518554687500000e+00 6.101902389526367188e+01 -2.540365457534790039e-01 7.830787301063537598e-01
-4.667099475860595703e+00 6.102452850341796875e+01 -2.543368339538574219e-01 7.828508615493774414e-01
-8.230051040649414062e+00 1.317345714569091797e+01 -6.454955786466598511e-02 9.397583603858947754e-01
-1.710437774658203125e+01 2.551523399353027344e+01 -1.276496797800064087e-01 8.843764066696166992e-01
-1.735718727111816406e+01 2.501375961303710938e+01 -1.265231221914291382e-01 8.853386044502258301e-01
-1.736184310913085938e+01 2.418139648437500000e+01 -1.237084940075874329e-01 8.877406120300292969e-01
-8.243703842163085938e+00 1.073597621917724609e+01 -5.625045672059059143e-02 9.472957253456115723e-01
-1.040091991424560547e+01 1.310394477844238281e+01 -6.952331215143203735e-02 9.352695345878601074e-01
-1.109635257720947266e+01 1.309303665161132812e+01 -7.132156193256378174e-02 9.336522817611694336e-01
-1.130964374542236328e+01 1.250663089752197266e+01 -7.007247954607009888e-02 9.347761273384094238e-01
-1.131398391723632812e+01 1.173064422607421875e+01 -6.772766262292861938e-02 9.368882775306701660e-01
-1.098445034027099609e+01 1.067981433868408203e+01 -6.366546452045440674e-02 9.405575990676879883e-01
-1.928683090209960938e+01 1.702291870117187500e+01 -1.069033816456794739e-01 9.022173881530761719e-01
-1.992736816406250000e+01 1.702650260925292969e+01 -1.089222729206085205e-01 9.004651904106140137e-01
-2.059274673461914062e+01 1.703022384643554688e+01 -1.110481247305870056e-01 8.986238241195678711e-01
-2.095339393615722656e+01 1.676886749267578125e+01 -1.115266382694244385e-01 8.982111811637878418e-01
-2.215178680419921875e+01 1.658892631530761719e+01 -1.150076240301132202e-01 8.952071666717529297e-01
-2.291593170166015625e+01 1.659320259094238281e+01 -1.175929233431816101e-01 8.929973840713500977e-01
-2.436334228515625000e+01 1.705130767822265625e+01 -1.235790997743606567e-01 8.878512382507324219e-01
-2.522352409362792969e+01 1.705612182617187500e+01 -1.265347301959991455e-01 8.853282928466796875e-01
-2.732687950134277344e+01 1.661787033081054688e+01 -1.329104602336883545e-01 8.799122571945190430e-01
-3.050096702575683594e+01 1.723058509826660156e+01 -1.455641090869903564e-01 8.692478537559509277e-01
-1.631087112426757812e+01 8.534902572631835938e+00 -7.649337500333786011e-02 9.290094375610351562e-01
-3.633783721923828125e+01 1.827663993835449219e+01 -1.690324395895004272e-01 8.498441576957702637e-01
-3.616643142700195312e+01 1.675670814514160156e+01 -1.656434535980224609e-01 8.526208996772766113e-01
-4.050125503540039062e+01 1.720669937133789062e+01 -1.828443855047225952e-01 8.386006355285644531e-01
-4.430225372314453125e+01 1.716281127929687500e+01 -1.974371224641799927e-01 8.269228935241699219e-01
-4.585348892211914062e+01 1.692148399353027344e+01 -2.031130939722061157e-01 8.224181532859802246e-01
-6.653154754638671875e+01 2.334472656250000000e+01 -2.930084168910980225e-01 7.542467713356018066e-01
-6.865196990966796875e+01 2.285658073425292969e+01 -3.006902933120727539e-01 7.486902475357055664e-01
-7.227495574951171875e+01 2.277941322326660156e+01 -3.149144053459167480e-01 7.385092377662658691e-01
-7.218565368652343750e+01 2.022553634643554688e+01 -3.115312159061431885e-01 7.409182190895080566e-01
-7.225625610351562500e+01 1.290708923339843750e+01 -3.050250113010406494e-01 7.455728054046630859e-01
-7.232681274414062500e+01 1.172369098663330078e+01 -3.044883608818054199e-01 7.459580898284912109e-01
-7.931773376464843750e+01 1.155205059051513672e+01 -3.330947756767272949e-01 7.256982326507568359e-01
-6.324872970581054688e+01 -9.211737632751464844e+00 -9.739620685577392578e-01 7.743790745735168457e-01
-6.192642593383789062e+01 -1.003786087036132812e+01 -9.559606909751892090e-01 7.780473828315734863e-01
-5.510582351684570312e+01 -9.843544960021972656e+00 -8.530027866363525391e-01 7.993643879890441895e-01
-5.549485397338867188e+01 -1.554895496368408203e+01 -8.782052397727966309e-01 7.940928936004638672e-01
-5.550026321411132812e+01 -1.651678657531738281e+01 -8.823777437210083008e-01 7.932235598564147949e-01
-6.044316864013671875e+01 -2.120842742919921875e+01 -9.760955572128295898e-01 7.739454507827758789e-01
-5.751454925537109375e+01 -2.122480392456054688e+01 -9.341889619827270508e-01 7.825071811676025391e-01
-5.482635498046875000e+01 -2.123984336853027344e+01 -8.959541320800781250e-01 7.904013991355895996e-01
-5.014065933227539062e+01 -2.130192375183105469e+01 -8.301449418067932129e-01 8.041756749153137207e-01
-5.014602279663085938e+01 -2.226210975646972656e+01 -8.360493183135986328e-01 8.029301166534423828e-01
-4.621404266357421875e+01 -2.141196250915527344e+01 -7.761089801788330078e-01 8.156603574752807617e-01
-4.527473831176757812e+01 -2.186722564697265625e+01 -7.661591768264770508e-01 8.177984952926635742e-01
-4.280823135375976562e+01 -2.153101539611816406e+01 -7.301815748214721680e-01 8.255594372749328613e-01
-4.116796112060546875e+01 -2.154174804687500000e+01 -7.079821825027465820e-01 8.303772211074829102e-01
-4.025539016723632812e+01 -2.189530181884765625e+01 -6.982834935188293457e-01 8.325017094612121582e-01
-3.798415374755859375e+01 -2.145798873901367188e+01 -6.647672653198242188e-01 8.398559689521789551e-01
-3.661127471923828125e+01 -2.146567344665527344e+01 -6.467084884643554688e-01 8.438504338264465332e-01
-3.573897552490234375e+01 -2.173339843750000000e+01 -6.373873949050903320e-01 8.459178209304809570e-01
-3.328213882446289062e+01 -2.173429679870605469e+01 -6.057200431823730469e-01 8.529798388481140137e-01
-2.689016342163085938e+01 -2.152003860473632812e+01 -5.248196125030517578e-01 8.712898492813110352e-01
-2.626875686645507812e+01 -2.172428703308105469e+01 -5.194383263587951660e-01 8.725215792655944824e-01
-2.577040290832519531e+01 -2.201897430419921875e+01 -5.165104269981384277e-01 8.731915354728698730e-01
-2.657106208801269531e+01 -2.345212745666503906e+01 -5.400466918945312500e-01 8.678137660026550293e-01
-2.146396255493164062e+01 -2.155039024353027344e+01 -4.634820520877838135e-01 8.854340314865112305e-01
-2.055171012878417969e+01 -2.200550651550292969e+01 -4.588213860988616943e-01 8.865177035331726074e-01
-1.927200126647949219e+01 -2.201265525817871094e+01 -4.458209276199340820e-01 8.895484805107116699e-01
-1.865864372253417969e+01 -2.201609420776367188e+01 -4.397605657577514648e-01 8.909649252891540527e-01
-1.616888618469238281e+01 -2.177265548706054688e+01 -4.132350087165832520e-01 8.971863985061645508e-01
-1.301526546478271484e+01 -2.159764671325683594e+01 -3.842480480670928955e-01 9.040447473526000977e-01
-1.030666923522949219e+01 -1.774177742004394531e+01 -3.126612901687622070e-01 9.211959838867187500e-01
-8.523271560668945312e+00 -1.523017501831054688e+01 -2.659588456153869629e-01 9.325618743896484375e-01
-8.456862449645996094e+00 -1.769057655334472656e+01 -2.987922728061676025e-01 9.245563745498657227e-01
-1.219582748413085938e+01 -2.660228538513183594e+01 -4.459411501884460449e-01 8.895209431648254395e-01
-1.265825939178466797e+01 -2.882483291625976562e+01 -4.797242581844329834e-01 8.816661834716796875e-01
-1.215609550476074219e+01 -3.911661911010742188e+01 -6.241842508316040039e-01 8.488550782203674316e-01
-1.150732898712158203e+01 -3.924337768554687500e+01 -6.231753230094909668e-01 8.490799069404602051e-01
-8.085615158081054688e+00 -3.891007614135742188e+01 -6.055840849876403809e-01 8.530102968215942383e-01
-6.848798751831054688e+00 -3.925117111206054688e+01 -6.071521043777465820e-01 8.526592254638671875e-01
-6.201191425323486328e+00 -3.925479507446289062e+01 -6.055884957313537598e-01 8.530093431472778320e-01
-5.556713581085205078e+00 -3.925840759277343750e+01 -6.041883826255798340e-01 8.533229231834411621e-01
-4.915078163146972656e+00 -3.926200103759765625e+01 -6.029499769210815430e-01 8.536003232002258301e-01
-3.019501924514770508e+00 -3.948167037963867188e+01 -6.033845543861389160e-01 8.535029888153076172e-01
-1.739951133728027344e+00 -3.934801483154296875e+01 -6.001769900321960449e-01 8.542219996452331543e-01
-1.106914043426513672e+00 -3.935155105590820312e+01 -5.998821854591369629e-01 8.542881608009338379e-01
1.411196231842041016e+00 -3.901319122314453125e+01 -5.948776006698608398e-01 8.554112315177917480e-01
2.039541006088256836e+00 -3.901671600341796875e+01 -5.953544378280639648e-01 8.553041815757751465e-01
3.322382688522338867e+00 -3.928750991821289062e+01 -6.008058190345764160e-01 8.540809750556945801e-01
3.959516525268554688e+00 -3.929106521606445312e+01 -6.017557978630065918e-01 8.538680672645568848e-01
4.598833084106445312e+00 -3.929464721679687500e+01 -6.028646826744079590e-01 8.536195158958435059e-01
5.240653991699218750e+00 -3.929823303222656250e+01 -6.041337251663208008e-01 8.533351421356201172e-01
5.916698932647705078e+00 -3.951109313964843750e+01 -6.087892055511474609e-01 8.522928357124328613e-01
7.223095417022705078e+00 -3.951839828491210938e+01 -6.121636629104614258e-01 8.515381217002868652e-01
9.160395622253417969e+00 -3.930150222778320312e+01 -6.149348020553588867e-01 8.509188890457153320e-01
9.829751014709472656e+00 -3.930525207519531250e+01 -6.173852682113647461e-01 8.503715991973876953e-01
1.104458427429199219e+01 -3.881765365600585938e+01 -6.149916052818298340e-01 8.509073853492736816e-01
1.246355438232421875e+01 -3.899754714965820312e+01 -6.238619685173034668e-01 8.489269018173217773e-01
1.325990200042724609e+01 -3.929998016357421875e+01 -6.320277452468872070e-01 8.471090197563171387e-01
1.396863746643066406e+01 -3.930394363403320312e+01 -6.356195211410522461e-01 8.463105559349060059e-01
1.487304210662841797e+01 -3.621496963500976562e+01 -5.965748429298400879e-01 8.550300598144531250e-01
1.841326713562011719e+01 -3.624599456787109375e+01 -6.195055842399597168e-01 8.498983979225158691e-01
1.911017036437988281e+01 -3.616656112670898438e+01 -6.233015060424804688e-01 8.490484952926635742e-01
1.986365699768066406e+01 -3.617316436767578125e+01 -6.288509964942932129e-01 8.478158116340637207e-01
2.226235771179199219e+01 -3.627973556518554688e+01 -6.486217975616455078e-01 8.434267640113830566e-01
2.390978050231933594e+01 -3.629417800903320312e+01 -6.622805595397949219e-01 8.404076695442199707e-01
2.651986312866210938e+01 -3.631705856323242188e+01 -6.852479577064514160e-01 8.353555798530578613e-01
2.932426261901855469e+01 -3.634164047241210938e+01 -7.115789651870727539e-01 8.296009898185729980e-01
1.085957050323486328e+01 -1.260684585571289062e+01 -2.535505592823028564e-01 9.356025457382202148e-01
1.086180686950683594e+01 -1.220713806152343750e+01 -2.489901632070541382e-01 9.367233514785766602e-01
1.224410629272460938e+01 -1.290086841583251953e+01 -2.710296511650085449e-01 9.313191771507263184e-01
1.349125480651855469e+01 -1.290785121917724609e+01 -2.845196425914764404e-01 9.280266165733337402e-01
7.408392333984375000e+01 -5.831859588623046875e+01 -1.436701416969299316e+00 6.857925653457641602e-01
7.382112884521484375e+01 -5.078685379028320312e+01 -1.365397930145263672e+00 6.987534165382385254e-01
7.416396331787109375e+01 -4.928591537475585938e+01 -1.356917142868041992e+00 7.003115415573120117e-01
7.376402282714843750e+01 -4.732922744750976562e+01 -1.335511445999145508e+00 7.042582035064697266e-01
8.195078277587890625e+01 -4.716815185546875000e+01 -1.440848350524902344e+00 6.850479841232299805e-01
9.090860748291015625e+01 -3.948712921142578125e+01 -1.510315418243408203e+00 6.726685762405395508e-01
6.221020507812500000e+01 -2.467700195312500000e+01 -1.019826054573059082e+00 7.651110291481018066e-01
8.930950927734375000e+01 -3.377594757080078125e+01 -1.454984307289123535e+00 6.825112104415893555e-01
8.931288146972656250e+01 -3.214649200439453125e+01 -1.446435928344726562e+00 6.840446591377258301e-01
8.932420349121093750e+01 -2.736586761474609375e+01 -1.423581480979919434e+00 6.881612539291381836e-01
8.954012298583984375e+01 -2.431381797790527344e+01 -1.413837075233459473e+00 6.899244785308837891e-01
8.907348632812500000e+01 -2.265674781799316406e+01 -1.400535702705383301e+00 6.923373341560363770e-01
8.934731292724609375e+01 -1.969282150268554688e+01 -1.394165873527526855e+00 6.934960484504699707e-01
8.935157012939453125e+01 -1.819335937500000000e+01 -1.389490365982055664e+00 6.943477988243103027e-01
8.936268615722656250e+01 -1.522294902801513672e+01 -1.381338834762573242e+00 6.958353519439697266e-01
8.936855316162109375e+01 -1.375005817413330078e+01 -1.377835869789123535e+00 6.964755654335021973e-01
8.937465667724609375e+01 -1.228428649902343750e+01 -1.374708652496337891e+00 6.970475912094116211e-01
8.938095855712890625e+01 -1.082479476928710938e+01 -1.371952533721923828e+00 6.975520849227905273e-01
8.932370758056640625e+01 -6.470546722412109375e+00 -1.364694595336914062e+00 6.988824605941772461e-01
8.933633422851562500e+01 -5.029892444610595703e+00 -1.363474726676940918e+00 6.991060376167297363e-01
8.936154937744140625e+01 -2.154433488845825195e+00 -1.362099289894104004e+00 6.993586421012878418e-01
8.938672637939453125e+01 7.181933522224426270e-01 -1.362132430076599121e+00 6.993528008460998535e-01
7.665182495117187500e+01 1.847998023033142090e+00 -1.168371438980102539e+00 7.358477711677551270e-01
7.667254638671875000e+01 5.554091453552246094e+00 -1.171409130096435547e+00 7.352611422538757324e-01
7.668644714355468750e+01 8.039286613464355469e+00 -1.174963474273681641e+00 7.345754504203796387e-01
7.487806701660156250e+01 9.068368911743164062e+00 -1.149340748786926270e+00 7.395334243774414062e-01
7.670044708251953125e+01 1.054222679138183594e+01 -1.179761528968811035e+00 7.336507439613342285e-01
7.670748901367187500e+01 1.180202102661132812e+01 -1.182634592056274414e+00 7.330976128578186035e-01
8.955350494384765625e+01 1.973824119567871094e+01 -1.397382974624633789e+00 6.929105520248413086e-01
8.956680297851562500e+01 2.125588798522949219e+01 -1.402738332748413086e+00 6.919367909431457520e-01
1.234872055053710938e+01 9.720859527587890625e+00 -2.394796758890151978e-01 9.390650987625122070e-01
6.245518493652343750e+01 5.081099319458007812e+01 -1.226875901222229004e+00 7.246322631835937500e-01
6.045785140991210938e+01 5.082216644287109375e+01 -1.203528761863708496e+00 7.290872931480407715e-01
1.116812515258789062e+01 9.698671340942382812e+00 -2.253965735435485840e-01 9.425434470176696777e-01
1.081437969207763672e+01 9.700654029846191406e+00 -2.213751226663589478e-01 9.435390830039978027e-01
1.047294902801513672e+01 9.702558517456054688e+00 -2.175491303205490112e-01 9.444871544837951660e-01
1.014866638183593750e+01 9.709794998168945312e+00 -2.140270918607711792e-01 9.453609585762023926e-01
9.084345817565917969e+00 9.268681526184082031e+00 -1.977638155221939087e-01 9.494059085845947266e-01
4.109605407714843750e+01 5.093048858642578125e+01 -9.972347617149353027e-01 7.696627378463745117e-01
3.972759628295898438e+01 5.260784912109375000e+01 -1.004551649093627930e+00 7.681859731674194336e-01
3.973773193359375000e+01 5.441794967651367188e+01 -1.026785612106323242e+00 7.637144923210144043e-01
3.977102279663085938e+01 6.037095642089843750e+01 -1.101621985435485840e+00 7.488560080528259277e-01
3.978324127197265625e+01 6.255486297607421875e+01 -1.129661560058593750e+00 7.433639168739318848e-01
3.979610443115234375e+01 6.485351562500000000e+01 -1.159473538398742676e+00 7.375687956809997559e-01
3.980965805053710938e+01 6.727738189697265625e+01 -1.191219091415405273e+00 7.314479351043701172e-01
3.467258071899414062e+01 6.080448913574218750e+01 -1.066604852676391602e+00 7.557727098464965820e-01
1.794993209838867188e+01 3.533394622802734375e+01 -6.039170622825622559e-01 8.533836603164672852e-01
1.186560535430908203e+01 2.644068336486816406e+01 -4.416180253028869629e-01 8.905306458473205566e-01
2.274179649353027344e+01 6.087120819091796875e+01 -9.901864528656005859e-01 7.710877656936645508e-01
2.163585472106933594e+01 6.087739944458007812e+01 -9.845028519630432129e-01 7.722389698028564453e-01
1.838903808593750000e+01 6.089556503295898438e+01 -9.693246483802795410e-01 7.753229141235351562e-01
1.627641105651855469e+01 6.090738296508789062e+01 -9.606869220733642578e-01 7.770830988883972168e-01
1.523363208770751953e+01 6.091320037841796875e+01 -9.567928910255432129e-01 7.778777480125427246e-01
1.317187023162841797e+01 6.092474365234375000e+01 -9.498324394226074219e-01 7.793006300926208496e-01
8.128457069396972656e+00 6.095294952392578125e+01 -9.370321631431579590e-01 7.819231748580932617e-01
7.134243011474609375e+00 6.095851516723632812e+01 -9.352377057075500488e-01 7.822923064231872559e-01
1.225317358970642090e+00 6.099158096313476562e+01 -9.295858740806579590e-01 7.834532260894775391e-01
2.450878918170928955e-01 6.099707031250000000e+01 -9.294930696487426758e-01 7.834730744361877441e-01
-1.716059565544128418e+00 6.100802612304687500e+01 -9.300180077552795410e-01 7.833646535873413086e-01
-2.698017597198486328e+00 6.101351547241210938e+01 -9.306429624557495117e-01 7.832362055778503418e-01
-5.655256271362304688e+00 6.103005599975585938e+01 -9.339681863784790039e-01 7.825523018836975098e-01
-8.230051040649414062e+00 1.317345714569091797e+01 -2.366938740015029907e-01 9.397521018981933594e-01
-1.699864959716796875e+01 2.626023292541503906e+01 -4.766775369644165039e-01 8.823716640472412109e-01
-1.735718727111816406e+01 2.501376914978027344e+01 -4.639410376548767090e-01 8.853269815444946289e-01
-8.243703842163085938e+00 1.073598575592041016e+01 -2.062615901231765747e-01 9.472901821136474609e-01
-1.073801994323730469e+01 1.309103488922119141e+01 -2.580064237117767334e-01 9.345086216926574707e-01
-1.099453353881835938e+01 1.297288990020751953e+01 -2.591273486614227295e-01 9.342337846755981445e-01
-1.099683570861816406e+01 1.256068325042724609e+01 -2.543910145759582520e-01 9.353961348533630371e-01
-1.100120544433593750e+01 1.177941417694091797e+01 -2.456045448780059814e-01 9.375563859939575195e-01
-1.098444843292236328e+01 1.067981433868408203e+01 -2.334559559822082520e-01 9.405514001846313477e-01
-1.928681564331054688e+01 1.702291870117187500e+01 -3.919972181320190430e-01 9.022074341773986816e-01
-1.992736434936523438e+01 1.702650260925292969e+01 -3.994029164314270020e-01 9.004550576210021973e-01
-2.155021476745605469e+01 1.668556594848632812e+01 -4.152584671974182129e-01 8.967021107673645020e-01
-2.215179061889648438e+01 1.658892631530761719e+01 -4.217184484004974365e-01 8.951964974403381348e-01
-2.436333847045898438e+01 1.705130767822265625e+01 -4.531435966491699219e-01 8.878399133682250977e-01
-3.133722114562988281e+01 1.837343788146972656e+01 -5.535466074943542480e-01 8.647435307502746582e-01
-3.105055427551269531e+01 1.688871002197265625e+01 -5.386132597923278809e-01 8.681403398513793945e-01
-3.633783721923828125e+01 1.827663993835449219e+01 -6.198152303695678711e-01 8.498292565345764160e-01
-3.555138015747070312e+01 1.717093658447265625e+01 -6.016159057617187500e-01 8.538993597030639648e-01
-3.616643905639648438e+01 1.675670814514160156e+01 -6.073889136314392090e-01 8.526062369346618652e-01
-3.756118392944335938e+01 1.667511749267578125e+01 -6.262310743331909180e-01 8.483991026878356934e-01
-4.125381851196289062e+01 1.674907112121582031e+01 -6.784611344337463379e-01 8.368439674377441406e-01
-4.585348129272460938e+01 1.692148399353027344e+01 -7.447851300239562988e-01 8.224008679389953613e-01
-2.775072288513183594e+01 5.883085727691650391e+00 -4.322679042816162109e-01 8.927193284034729004e-01
-5.502275085449218750e+01 1.074378871917724609e+01 -8.542791604995727539e-01 7.990965843200683594e-01
-7.214473724365234375e+01 1.288718700408935547e+01 -1.116754055023193359e+00 7.458871603012084961e-01
-7.232681274414062500e+01 1.172369098663330078e+01 -1.116511464118957520e+00 7.459346055984497070e-01
-8.669170379638671875e+01 -1.393242120742797852e+00 -2.282400846481323242e+00 7.068535685539245605e-01
-8.665812683105468750e+01 -2.786093711853027344e+00 -2.282400846481323242e+00 7.068535685539245605e-01
-8.660216522216796875e+01 -4.178212642669677734e+00 -2.282400846481323242e+00 7.068535685539245605e-01
-8.642317199707031250e+01 -6.958906173706054688e+00 -2.282400846481323242e+00 7.068535685539245605e-01
-8.630019378662109375e+01 -8.346709251403808594e+00 -2.282400846481323242e+00 7.068535685539245605e-01
-8.598741912841796875e+01 -1.111558532714843750e+01 -2.282400846481323242e+00 7.068535685539245605e-01
-5.569822692871093750e+01 -9.028300285339355469e+00 -1.485365390777587891e+00 7.978944182395935059e-01
-5.474662780761718750e+01 -9.779375076293945312e+00 -1.463983416557312012e+00 8.004910349845886230e-01
-4.689446640014648438e+01 -9.156679153442382812e+00 -1.257781147956848145e+00 8.259785175323486328e-01
-5.751940155029296875e+01 -1.915013694763183594e+01 -1.595876455307006836e+00 7.846025228500366211e-01
-5.653921127319335938e+01 -1.983860397338867188e+01 -1.577323913574218750e+00 7.868183255195617676e-01
-5.014065933227539062e+01 -2.130192375183105469e+01 -1.434101223945617676e+00 8.041353225708007812e-01
-5.014602279663085938e+01 -2.226210975646972656e+01 -1.444301366806030273e+00 8.028895854949951172e-01
-4.116796112060546875e+01 -2.154176712036132812e+01 -1.223100423812866211e+00 8.303416371345520020e-01
-4.016439819335937500e+01 -2.184580993652343750e+01 -1.203579664230346680e+00 8.328117132186889648e-01
-3.661127853393554688e+01 -2.146567344665527344e+01 -1.117209196090698242e+00 8.438174128532409668e-01
-3.573897552490234375e+01 -2.173339843750000000e+01 -1.101106882095336914e+00 8.458852767944335938e-01
-3.400349044799804688e+01 -2.143395423889160156e+01 -1.058113336563110352e+00 8.514313697814941406e-01
-3.328212356567382812e+01 -2.173429679870605469e+01 -1.046399950981140137e+00 8.529486656188964844e-01
-3.178451538085937500e+01 -2.149266624450683594e+01 -1.010043978691101074e+00 8.576753139495849609e-01
-3.107219123840332031e+01 -2.174666023254394531e+01 -9.983744621276855469e-01 8.591966629028320312e-01
-2.900501823425292969e+01 -2.172115135192871094e+01 -9.539092779159545898e-01 8.650248050689697266e-01
-2.626875686645507812e+01 -2.172428703308105469e+01 -8.973458409309387207e-01 8.724942207336425781e-01
-2.657106208801269531e+01 -2.345212745666503906e+01 -9.329485893249511719e-01 8.677853941917419434e-01
-2.297575187683105469e+01 -2.163131713867187500e+01 -8.307000398635864258e-01 8.813778162002563477e-01
-2.216112518310546875e+01 -2.154648399353027344e+01 -8.136579990386962891e-01 8.836635947227478027e-01
-2.146396255493164062e+01 -2.155039024353027344e+01 -8.006750345230102539e-01 8.854092359542846680e-01
-2.101905059814453125e+01 -2.179310417175292969e+01 -7.970421910285949707e-01 8.858985900878906250e-01
-1.990266227722167969e+01 -2.200913047790527344e+01 -7.811370491981506348e-01 8.880429267883300781e-01
-1.777581214904785156e+01 -2.167101478576660156e+01 -7.378405332565307617e-01 8.939065933227539062e-01
-1.068142795562744141e+01 -1.772488212585449219e+01 -5.447785854339599609e-01 9.205288887023925781e-01
-8.523278236389160156e+00 -1.523016548156738281e+01 -4.594393670558929443e-01 9.325469136238098145e-01
-1.263341808319091797e+01 -2.438141632080078125e+01 -7.228689193725585938e-01 8.959430456161499023e-01
-1.263901138305664062e+01 -2.538259696960449219e+01 -7.464352250099182129e-01 8.927395939826965332e-01
-8.456862449645996094e+00 -1.769057655334472656e+01 -5.161563158035278320e-01 9.245396852493286133e-01
-1.265825939178466797e+01 -2.882483291625976562e+01 -8.287397623062133789e-01 8.816406130790710449e-01
-1.322508525848388672e+01 -3.818133544921875000e+01 -1.063686847686767578e+00 8.507103323936462402e-01
-1.084045410156250000e+01 -3.929711914062500000e+01 -1.073111414909362793e+00 8.494924902915954590e-01
-1.016481399536132812e+01 -3.930078125000000000e+01 -1.068612456321716309e+00 8.500735759735107422e-01
-8.633850097656250000e+00 -3.843701171875000000e+01 -1.037042617797851562e+00 8.541626334190368652e-01
-7.214804649353027344e+00 -3.775540924072265625e+01 -1.011873602867126465e+00 8.574369549751281738e-01
-5.563788890838623047e+00 -3.930835723876953125e+01 -1.045082092285156250e+00 8.531194925308227539e-01
-4.921332836151123047e+00 -3.931194305419921875e+01 -1.042940616607666016e+00 8.533973097801208496e-01
-3.661137580871582031e+00 -3.951001739501953125e+01 -1.044532656669616699e+00 8.531907796859741211e-01
-2.372675657272338867e+00 -3.932621002197265625e+01 -1.037120342254638672e+00 8.541525602340698242e-01
-1.108310580253601074e+00 -3.940154266357421875e+01 -1.037631869316101074e+00 8.540862202644348145e-01
-4.749218523502349854e-01 -3.940504837036132812e+01 -1.037389397621154785e+00 8.541176915168762207e-01
1.394194245338439941e+00 -3.854308319091796875e+01 -1.015286803245544434e+00 8.569920659065246582e-01
2.014961004257202148e+00 -3.854656219482421875e+01 -1.016100168228149414e+00 8.568861484527587891e-01
2.560424804687500000e+00 -3.743202972412109375e+01 -9.876777529716491699e-01 8.605961203575134277e-01
5.921484470367431641e+00 -3.954306411743164062e+01 -1.052552580833435059e+00 8.521512150764465332e-01
6.573408126831054688e+00 -3.954669952392578125e+01 -1.055325865745544434e+00 8.517921566963195801e-01
7.846601486206054688e+00 -3.934416961669921875e+01 -1.056107282638549805e+00 8.516909480094909668e-01
9.172060012817382812e+00 -3.935158157348632812e+01 -1.063672661781311035e+00 8.507121801376342773e-01
1.051802730560302734e+01 -3.935911941528320312e+01 -1.072462558746337891e+00 8.495762944221496582e-01
1.105867195129394531e+01 -3.886712646484375000e+01 -1.063761353492736816e+00 8.507006168365478516e-01
3.569540977478027344e+00 -1.182057571411132812e+01 -3.250482082366943359e-01 9.517924785614013672e-01
1.221382331848144531e+01 -3.821613311767578125e+01 -1.056146144866943359e+00 8.516860008239746094e-01
1.258772945404052734e+01 -3.730779266357421875e+01 -1.036499738693237305e+00 8.542331457138061523e-01
1.365838336944580078e+01 -3.655837631225585938e+01 -1.027334451675415039e+00 8.554223179817199707e-01
1.419500923156738281e+01 -3.620902252197265625e+01 -1.023810625076293945e+00 8.558825850486755371e-01
1.487304210662841797e+01 -3.621496963500976562e+01 -1.030603051185607910e+00 8.549992442131042480e-01
1.696481895446777344e+01 -3.623331069946289062e+01 -1.053192019462585449e+00 8.520684838294982910e-01
1.768324661254882812e+01 -3.623959732055664062e+01 -1.061498284339904785e+00 8.509933948516845703e-01
2.390978050231933594e+01 -3.629417800903320312e+01 -1.144110441207885742e+00 8.403740525245666504e-01
2.476022911071777344e+01 -3.630163192749023438e+01 -1.156739950180053711e+00 8.387623429298400879e-01
2.743139076232910156e+01 -3.632504653930664062e+01 -1.198264002799987793e+00 8.334850072860717773e-01
2.932425689697265625e+01 -3.634164047241210938e+01 -1.229274630546569824e+00 8.295652866363525391e-01
3.030844688415527344e+01 -3.635027313232421875e+01 -1.245882153511047363e+00 8.274738192558288574e-01
1.086180686950683594e+01 -1.220713806152343750e+01 -4.301382303237915039e-01 9.367092847824096680e-01
1.081572723388671875e+01 -1.176896476745605469e+01 -4.207693338394165039e-01 9.380442500114440918e-01
1.264650344848632812e+01 -1.290312480926513672e+01 -4.756094217300415039e-01 9.302573800086975098e-01
1.301464843750000000e+01 -1.285873031616210938e+01 -4.816242754459381104e-01 9.294078350067138672e-01
1.349125003814697266e+01 -1.290785121917724609e+01 -4.915168583393096924e-01 9.280107021331787109e-01
1.393540000915527344e+01 -1.291033172607421875e+01 -5.000764131546020508e-01 9.268043041229248047e-01
1.416633224487304688e+01 -1.270742130279541016e+01 -5.009703040122985840e-01 9.266783595085144043e-01
1.416858863830566406e+01 -1.230436515808105469e+01 -4.939913749694824219e-01 9.276615977287292480e-01
4.328001022338867188e+01 -3.638210678100585938e+01 -1.488398075103759766e+00 7.975267171859741211e-01
6.790870666503906250e+01 -5.345748901367187500e+01 -2.275087594985961914e+00 7.076397538185119629e-01
6.793257904052734375e+01 -5.002618026733398438e+01 -2.220857620239257812e+00 7.134970426559448242e-01
6.793933105468750000e+01 -4.674032211303710938e+01 -2.170830249786376953e+00 7.189433574676513672e-01
6.810079193115234375e+01 -4.369547653198242188e+01 -2.130000829696655273e+00 7.234190702438354492e-01
6.946970367431640625e+01 -4.148458099365234375e+01 -2.130000829696655273e+00 7.234191298484802246e-01
7.138814544677734375e+01 -3.808864212036132812e+01 -2.130000829696655273e+00 7.234190702438354492e-01
7.199097442626953125e+01 -3.693659210205078125e+01 -2.130000829696655273e+00 7.234190702438354492e-01
7.257519531250000000e+01 -3.577499771118164062e+01 -2.130000829696655273e+00 7.234191298484802246e-01
7.314067840576171875e+01 -3.460414886474609375e+01 -2.130000829696655273e+00 7.234191894531250000e-01
6.173107147216796875e+01 -2.448695182800292969e+01 -1.748215436935424805e+00 7.666434049606323242e-01
5.977810287475585938e+01 -1.831394577026367188e+01 -1.645815253257751465e+00 7.786692380905151367e-01
8.118383789062500000e+01 -2.345178604125976562e+01 -2.224496364593505859e+00 7.131024599075317383e-01
8.158654022216796875e+01 -2.215376853942871094e+01 -2.225487232208251953e+00 7.129952907562255859e-01
8.196862030029296875e+01 -2.084954071044921875e+01 -2.226482391357421875e+00 7.128872275352478027e-01
8.233002471923828125e+01 -1.953849601745605469e+01 -2.227482795715332031e+00 7.127788662910461426e-01
8.267062377929687500e+01 -1.822123908996582031e+01 -2.228487253189086914e+00 7.126700282096862793e-01
8.328892517089843750e+01 -1.556942367553710938e+01 -2.230508089065551758e+00 7.124511003494262695e-01
8.356639099121093750e+01 -1.423553657531738281e+01 -2.231524229049682617e+00 7.123410701751708984e-01
8.382263183593750000e+01 -1.289640617370605469e+01 -2.232543706893920898e+00 7.122308611869812012e-01
8.478198242187500000e+01 -6.141523361206054688e+00 -2.237681388854980469e+00 7.116746902465820312e-01
8.509739685058593750e+01 -2.051347494125366211e+00 -2.240787744522094727e+00 7.113388180732727051e-01
8.519825744628906250e+01 6.847070455551147461e-01 -2.242863655090332031e+00 7.111142873764038086e-01
7.537162780761718750e+01 1.817128896713256836e+00 -1.984688043594360352e+00 7.395757436752319336e-01
7.538520050048828125e+01 4.244384765625000000e+00 -1.987611651420593262e+00 7.392471432685852051e-01
7.539883422851562500e+01 6.681308269500732422e+00 -1.992605447769165039e+00 7.386862039566040039e-01
7.540567016601562500e+01 7.905019283294677734e+00 -1.995885848999023438e+00 7.383180260658264160e-01
7.477445983886718750e+01 9.055820465087890625e+00 -1.982773900032043457e+00 7.397909164428710938e-01
7.541944122314453125e+01 1.036614227294921875e+01 -2.004035949707031250e+00 7.374038696289062500e-01
5.858666992187500000e+01 9.980224609375000000e+00 -1.564475536346435547e+00 7.883564233779907227e-01
7.544738006591796875e+01 1.536222648620605469e+01 -2.026859045028686523e+00 7.348501682281494141e-01
8.343310546875000000e+01 1.980025291442871094e+01 -2.257326602935791016e+00 7.095527052879333496e-01
8.249289703369140625e+01 2.382992172241210938e+01 -2.260365962982177734e+00 7.092250585556030273e-01
8.175702667236328125e+01 2.649201202392578125e+01 -2.262371778488159180e+00 7.090088129043579102e-01
8.020690917968750000e+01 3.033341789245605469e+01 -2.257347822189331055e+00 7.095505595207214355e-01
7.975966644287109375e+01 3.163839721679687500e+01 -2.258778333663940430e+00 7.093961834907531738e-01
7.929088592529296875e+01 3.293669891357421875e+01 -2.260200977325439453e+00 7.092427611351013184e-01
7.834020233154296875e+01 3.402790832519531250e+01 -2.248399496078491211e+00 7.105162739753723145e-01
7.736019134521484375e+01 3.660046768188476562e+01 -2.252880811691284180e+00 7.100324630737304688e-01
7.683963775634765625e+01 3.787706756591796875e+01 -2.255156993865966797e+00 7.097867727279663086e-01
7.446855926513671875e+01 4.286156082153320312e+01 -2.261857748031616211e+00 7.090642452239990234e-01
7.316884613037109375e+01 4.530425643920898438e+01 -2.265450954437255859e+00 7.086770534515380859e-01
7.184095764160156250e+01 4.774210739135742188e+01 -2.270687580108642578e+00 7.081131935119628906e-01
1.239062023162841797e+01 8.821054458618164062e+00 -4.003889262676239014e-01 9.409546256065368652e-01
1.081437969207763672e+01 9.700654029846191406e+00 -3.824322521686553955e-01 9.435264468193054199e-01
1.047294902801513672e+01 9.702558517456054688e+00 -3.758236467838287354e-01 9.444747567176818848e-01
9.037954330444335938e+00 8.929677963256835938e+00 -3.344582915306091309e-01 9.504320025444030762e-01
9.080141067504882812e+00 9.567167282104492188e+00 -3.472222685813903809e-01 9.485898017883300781e-01
4.385832977294921875e+01 5.091503906250000000e+01 -1.769009709358215332e+00 7.642236948013305664e-01
3.976775360107421875e+01 5.093790817260742188e+01 -1.701165437698364258e+00 7.721457481384277344e-01
3.973773193359375000e+01 5.441794967651367188e+01 -1.773804545402526855e+00 7.636670470237731934e-01
3.978324127197265625e+01 6.255488204956054688e+01 -1.951526761054992676e+00 7.433130741119384766e-01
4.534672927856445312e+01 7.389904022216796875e+01 -2.282400846481323242e+00 7.068535089492797852e-01
4.415336990356445312e+01 7.461817932128906250e+01 -2.282400846481323242e+00 7.068535685539245605e-01
3.213616180419921875e+01 6.081867218017578125e+01 -1.810774803161621094e+00 7.593874931335449219e-01
1.794992065429687500e+01 3.533394622802734375e+01 -1.043285250663757324e+00 8.533525466918945312e-01
1.259062957763671875e+01 2.580292892456054688e+01 -7.557966709136962891e-01 8.914701342582702637e-01
1.208254814147949219e+01 2.580577087402343750e+01 -7.500953674316406250e-01 8.922430276870727539e-01
3.614052772521972656e+00 8.412714958190917969e+00 -2.410298138856887817e-01 9.640257358551025391e-01
2.499389076232910156e+01 6.085863113403320312e+01 -1.731912493705749512e+00 7.685455083847045898e-01
2.386087799072265625e+01 6.086495971679687500e+01 -1.720955491065979004e+00 7.698262929916381836e-01
2.274179649353027344e+01 6.087120819091796875e+01 -1.710577011108398438e+00 7.710416316986083984e-01
2.054224967956542969e+01 6.088351440429687500e+01 -1.691492557525634766e+00 7.732819318771362305e-01
1.946023941040039062e+01 6.088956832885742188e+01 -1.682752370834350586e+00 7.743096351623535156e-01
1.523362255096435547e+01 6.091320037841796875e+01 -1.652889013290405273e+00 7.778327465057373047e-01
1.215166950225830078e+01 6.093044662475585938e+01 -1.635547757148742676e+00 7.798859477043151855e-01
1.012968254089355469e+01 6.094175720214843750e+01 -1.626267910003662109e+00 7.809866666793823242e-01
9.126757621765136719e+00 6.094736099243164062e+01 -1.622293353080749512e+00 7.814586162567138672e-01
6.143608093261718750e+00 6.096406173706054688e+01 -1.612972021102905273e+00 7.825666069984436035e-01
4.170839786529541016e+00 6.097509765625000000e+01 -1.608885169029235840e+00 7.830528616905212402e-01
2.206025362014770508e+00 6.098609161376953125e+01 -1.606473088264465332e+00 7.833399772644042969e-01
-7.352294921875000000e-01 6.100253677368164062e+01 -1.605972528457641602e+00 7.833995819091796875e-01
-1.716059565544128418e+00 6.100802612304687500e+01 -1.606634140014648438e+00 7.833206057548522949e-01
-3.681518554687500000e+00 6.101902389526367188e+01 -1.609209895133972168e+00 7.830140590667724609e-01
-4.667099475860595703e+00 6.102452850341796875e+01 -1.611126422882080078e+00 7.827861309051513672e-01
-1.215102005004882812e+01 8.584722137451171875e+01 -2.282400846481323242e+00 7.068535685539245605e-01
-1.900202369689941406e+01 8.459501647949218750e+01 -2.282400846481323242e+00 7.068535685539245605e-01
-2.035891151428222656e+01 8.427874755859375000e+01 -2.282400846481323242e+00 7.068535685539245605e-01
-2.305655670166015625e+01 8.358101654052734375e+01 -2.282400846481323242e+00 7.068535685539245605e-01
-2.439664268493652344e+01 8.319972229003906250e+01 -2.282400846481323242e+00 7.068536281585693359e-01
-2.573042869567871094e+01 8.279695129394531250e+01 -2.282400846481323242e+00 7.068536281585693359e-01
-2.969047737121582031e+01 8.146083831787109375e+01 -2.282400846481323242e+00 7.068535685539245605e-01
-3.613278198242187500e+01 7.881505584716796875e+01 -2.282400846481323242e+00 7.068535685539245605e-01
-3.988876724243164062e+01 7.698187255859375000e+01 -2.282400846481323242e+00 7.068547010421752930e-01
-4.112080001831054688e+01 7.633132934570312500e+01 -2.282400846481323242e+00 7.068535685539245605e-01
-4.355217361450195312e+01 7.497021484375000000e+01 -2.282400846481323242e+00 7.068546414375305176e-01
-8.230051040649414062e+00 1.317346668243408203e+01 -4.088963270187377930e-01 9.397386312484741211e-01
-1.699866104125976562e+01 2.626023292541503906e+01 -8.234759569168090820e-01 8.823462128639221191e-01
-1.710437774658203125e+01 2.551523399353027344e+01 -8.086074590682983398e-01 8.843396902084350586e-01
-1.735718727111816406e+01 2.501375961303710938e+01 -8.014727830886840820e-01 8.853021860122680664e-01
-9.404414176940917969e+00 1.309837818145751953e+01 -4.244767725467681885e-01 9.375157356262207031e-01
-8.243703842163085938e+00 1.073598575592041016e+01 -3.563236892223358154e-01 9.472783803939819336e-01
-1.068174743652343750e+01 1.302242183685302734e+01 -4.433793425559997559e-01 9.348259568214416504e-01
-9.657616615295410156e+00 1.067975521087646484e+01 -3.790408372879028320e-01 9.440129995346069336e-01
-1.064553451538085938e+01 1.139858341217041016e+01 -4.105719029903411865e-01 9.394993185997009277e-01
-1.029679393768310547e+01 1.067596626281738281e+01 -3.904363811016082764e-01 9.423767328262329102e-01
-1.063504886627197266e+01 1.067786121368408203e+01 -3.967214822769165039e-01 9.414792060852050781e-01
-1.765416908264160156e+01 1.662114143371582031e+01 -6.382955908775329590e-01 9.075352549552917480e-01
-1.928682899475097656e+01 1.702291870117187500e+01 -6.771876215934753418e-01 9.021860361099243164e-01
-2.095339393615722656e+01 1.676886749267578125e+01 -7.064749002456665039e-01 8.981786370277404785e-01
-2.155021858215332031e+01 1.668556594848632812e+01 -7.174299359321594238e-01 8.966795802116394043e-01
-2.215176200866699219e+01 1.658892631530761719e+01 -7.285241484642028809e-01 8.951737284660339355e-01
-2.291592979431152344e+01 1.659320259094238281e+01 -7.448148727416992188e-01 8.929632902145385742e-01
-2.522353172302246094e+01 1.705612182617187500e+01 -8.015497922897338867e-01 8.852918148040771484e-01
-2.580301284790039062e+01 1.685019493103027344e+01 -8.112504482269287109e-01 8.839868307113647461e-01
-2.651454925537109375e+01 1.671332931518554688e+01 -8.250597715377807617e-01 8.821318745613098145e-01
-2.732688903808593750e+01 1.661787033081054688e+01 -8.419332504272460938e-01 8.798741698265075684e-01
-3.105055999755859375e+01 1.688871002197265625e+01 -9.304714798927307129e-01 8.681120872497558594e-01
-1.630916976928710938e+01 8.534013748168945312e+00 -4.846261441707611084e-01 9.289934635162353516e-01
-3.477968978881835938e+01 1.679821205139160156e+01 -1.016750812530517578e+00 8.568013310432434082e-01
-3.983687210083007812e+01 1.692444229125976562e+01 -1.139396905899047852e+00 8.409763574600219727e-01
-4.585341262817382812e+01 1.692147445678710938e+01 -1.286633253097534180e+00 8.223640918731689453e-01
-6.083491897583007812e+01 2.134588813781738281e+01 -1.697164773941040039e+00 7.726152539253234863e-01
-7.162070465087890625e+01 2.257320213317871094e+01 -1.976797699928283691e+00 7.404633164405822754e-01
-2.648488998413085938e+01 7.420742034912109375e+00 -7.240475416183471680e-01 8.957825899124145508e-01
-2.637758636474609375e+01 6.935527324676513672e+00 -7.179749608039855957e-01 8.966099619865417480e-01
-7.232681274414062500e+01 1.172369098663330078e+01 -1.928809523582458496e+00 7.458842992782592773e-01
-8.602616119384765625e+01 6.926943302154541016e+00 -2.271915435791015625e+00 7.079810500144958496e-01
-8.652385711669921875e+01 5.569296836853027344e+00 -2.282400846481323242e+00 7.068535089492797852e-01
-8.660217285156250000e+01 4.178193092346191406e+00 -2.282400846481323242e+00 7.068535685539245605e-01
-8.665812683105468750e+01 2.786064386367797852e+00 -2.282400846481323242e+00 7.068535685539245605e-01
-6.099848175048828125e+01 9.765624781721271574e-06 -2.282400846481323242e+00 7.833586335182189941e-01
-6.092761230468750000e+01 -2.939521312713623047e+00 -2.282400846481323242e+00 7.833586335182189941e-01
-6.087251663208007812e+01 -3.918173789978027344e+00 -2.282400846481323242e+00 7.833585739135742188e-01
-6.071516799926757812e+01 -5.872187137603759766e+00 -2.282400846481323242e+00 7.833586335182189941e-01
-6.061296844482421875e+01 -6.847050666809082031e+00 -2.282400846481323242e+00 7.833586335182189941e-01
-6.049512481689453125e+01 -7.820165634155273438e+00 -2.282400846481323242e+00 7.833585739135742188e-01
-6.021261596679687500e+01 -9.760048866271972656e+00 -2.282400846481323242e+00 7.833585143089294434e-01
-4.661084747314453125e+01 -9.101298332214355469e+00 -1.776990652084350586e+00 8.268786072731018066e-01
-4.393482208251953125e+01 -1.080019474029541016e+01 -1.692865252494812012e+00 8.343536257743835449e-01
-5.505426025390625000e+01 -1.447555637359619141e+01 -2.130000829696655273e+00 7.962346076965332031e-01
-5.481454086303710938e+01 -1.535833930969238281e+01 -2.130000829696655273e+00 7.962346673011779785e-01
-5.401074981689453125e+01 -1.798198127746582031e+01 -2.130000829696655273e+00 7.962346673011779785e-01
-5.371481704711914062e+01 -1.884756851196289062e+01 -2.130000829696655273e+00 7.962346673011779785e-01
-5.340502166748046875e+01 -1.970826148986816406e+01 -2.130000829696655273e+00 7.962346673011779785e-01
-5.003555679321289062e+01 -2.125728416442871094e+01 -2.034150362014770508e+00 8.044410347938537598e-01
-5.004091262817382812e+01 -2.221544837951660156e+01 -2.048618316650390625e+00 8.031969666481018066e-01
-4.610741424560546875e+01 -2.136256790161132812e+01 -1.901394605636596680e+00 8.159471154212951660e-01
-4.261162567138671875e+01 -2.143210983276367188e+01 -1.784726977348327637e+00 8.261945843696594238e-01
-4.097591400146484375e+01 -2.144125938415527344e+01 -1.730426788330078125e+00 8.310078382492065430e-01
-3.943644332885742188e+01 -2.144987297058105469e+01 -1.679755210876464844e+00 8.355246782302856445e-01
